# .PCD v0.7 - Point Cloud Data file format
VERSION 0.7
FIELDS x y z rgb
SIZE 4 4 4 4
TYPE F F F F
COUNT 1 1 1 1
WIDTH 956
HEIGHT 1
VIEWPOINT 0 0 0 1 0 0 0
POINTS 956
DATA ascii
0.5191716 -0.32462114 0.62284869 2.089836e-38
0.52093315 -0.32831773 0.62562847 2.089836e-38
0.51881725 -0.31541583 0.62405127 2.089836e-38
0.5189293 -0.30451116 0.62599266 2.089836e-38
0.52006662 -0.30134916 0.62184691 2.089836e-38
0.51942754 -0.2969476 0.62658489 2.089836e-38
0.52048177 -0.29414928 0.6242764 2.089836e-38
0.52117437 -0.28536347 0.62582695 2.089836e-38
0.52250081 -0.27540219 0.62596083 2.089836e-38
0.52406824 -0.26471782 0.62531465 2.089836e-38
0.52559441 -0.25461629 0.62552816 2.089836e-38
0.52697033 -0.24507686 0.62540025 2.089836e-38
0.52819586 -0.23505402 0.6256007 2.089836e-38
0.52917016 -0.22635183 0.62610519 2.089836e-38
0.53065032 -0.22332411 0.62213272 2.089836e-38
0.52977228 -0.21933377 0.62809736 2.089836e-38
0.53075367 -0.21486309 0.6265887 2.089836e-38
0.53188568 -0.20447758 0.62638247 2.089836e-38
0.53332812 -0.19461852 0.62541056 2.089836e-38
0.53525597 -0.1849169 0.62498021 2.089836e-38
0.53802276 -0.17489606 0.62525332 2.089836e-38
0.53984547 -0.16949284 0.62560922 2.089836e-38
0.54194814 -0.16443373 0.62499881 2.089836e-38
0.5560537 -0.16113724 0.62274754 2.089836e-38
0.56348771 -0.16289927 0.62337893 2.089836e-38
0.57145238 -0.16494115 0.62144226 2.089836e-38
0.5453229 -0.1589503 0.62290967 2.089836e-38
0.55279362 -0.15951601 0.62072134 2.089836e-38
0.52362287 -0.3306455 0.63060564 2.089836e-38
0.51729333 -0.32303816 0.63735521 2.089836e-38
0.52232587 -0.32983369 0.63805652 2.089836e-38
0.51642889 -0.31448823 0.63620669 2.089836e-38
0.51874614 -0.30508003 0.63482559 2.089836e-38
0.52025771 -0.30048674 0.63832831 2.089836e-38
0.51982111 -0.29749355 0.63064677 2.089836e-38
0.52115142 -0.29466414 0.63537174 2.089836e-38
0.52250946 -0.28497708 0.6349318 2.089836e-38
0.52390331 -0.27475134 0.63498068 2.089836e-38
0.52513659 -0.26509982 0.6348632 2.089836e-38
0.52654952 -0.25512359 0.63500565 2.089836e-38
0.52792531 -0.24472567 0.63532132 2.089836e-38
0.52869296 -0.23528711 0.63501745 2.089836e-38
0.52953386 -0.22546043 0.63423437 2.089836e-38
0.53007197 -0.22079468 0.63645458 2.089836e-38
0.52999431 -0.21911673 0.63241744 2.089836e-38
0.53074104 -0.21469432 0.63571423 2.089836e-38
0.5320009 -0.20511772 0.63493723 2.089836e-38
0.52330554 -0.19128078 0.63230157 2.089836e-38
0.53363252 -0.19507399 0.63505483 2.089836e-38
0.53596431 -0.18506202 0.63508707 2.089836e-38
0.53845143 -0.17545544 0.63497764 2.089836e-38
0.54030544 -0.17061545 0.63697511 2.089836e-38
0.5422833 -0.1648619 0.6350944 2.089836e-38
0.54440957 -0.15956911 0.63531184 2.089836e-38
0.51818424 -0.32220966 0.64410412 2.089836e-38
0.52050954 -0.32701382 0.64253896 2.089836e-38
0.51771933 -0.31409737 0.64533252 2.089836e-38
0.51920938 -0.30709836 0.64397776 2.089836e-38
0.52074581 -0.30287999 0.645998 2.089836e-38
0.52257544 -0.29497495 0.64497375 2.089836e-38
0.52418792 -0.28497508 0.64499444 2.089836e-38
0.52518606 -0.27496892 0.64496076 2.089836e-38
0.52643865 -0.26499501 0.64488262 2.089836e-38
0.52782422 -0.255178 0.64511442 2.089836e-38
0.52915215 -0.24527553 0.64533156 2.089836e-38
0.52963799 -0.23572205 0.64267528 2.089836e-38
0.53040946 -0.23436201 0.64710921 2.089836e-38
0.5295012 -0.22665839 0.64212453 2.089836e-38
0.53076893 -0.22482897 0.6455093 2.089836e-38
0.53145224 -0.21516682 0.64537835 2.089836e-38
0.53264874 -0.20489863 0.64478558 2.089836e-38
0.53457963 -0.19504164 0.64475787 2.089836e-38
0.53655475 -0.18493889 0.64478922 2.089836e-38
0.53888029 -0.17694813 0.64478815 2.089836e-38
0.54077941 -0.17220381 0.64575636 2.089836e-38
0.54376715 -0.16486582 0.64464605 2.089836e-38
0.55199623 -0.16132392 0.64254975 2.089836e-38
0.54578811 -0.15952474 0.64296043 2.089836e-38
0.51831383 -0.32378212 0.65268004 2.089836e-38
0.52091819 -0.32448789 0.6566878 2.089836e-38
0.51881826 -0.31611407 0.65135109 2.089836e-38
0.52127314 -0.31474072 0.65512866 2.089836e-38
0.51945072 -0.30983979 0.65043616 2.089836e-38
0.52173054 -0.30519891 0.65427959 2.089836e-38
0.52377111 -0.29506671 0.65501195 2.089836e-38
0.52530831 -0.28473732 0.65516269 2.089836e-38
0.52631438 -0.27526087 0.654944 2.089836e-38
0.5275299 -0.26514703 0.65520942 2.089836e-38
0.52882862 -0.25484136 0.65474033 2.089836e-38
0.53002602 -0.25041348 0.65955245 2.089836e-38
0.5296222 -0.24760622 0.65328181 2.089836e-38
0.5303722 -0.24392454 0.65609753 2.089836e-38
0.53128892 -0.23490287 0.65493184 2.089836e-38
0.53229719 -0.22490686 0.65503281 2.089836e-38
0.5330478 -0.21498363 0.65556848 2.089836e-38
0.53359628 -0.20518632 0.65481889 2.089836e-38
0.53494138 -0.19476974 0.6552524 2.089836e-38
0.53707707 -0.18485633 0.65496075 2.089836e-38
0.53928649 -0.17789507 0.6551134 2.089836e-38
0.54095358 -0.17300566 0.65504164 2.089836e-38
0.54416317 -0.16462041 0.65483141 2.089836e-38
0.54901838 -0.15899745 0.65602708 2.089836e-38
0.55233413 -0.15704262 0.65820283 2.089836e-38
0.52261651 -0.33046162 0.66464925 2.089836e-38
0.51962197 -0.3242017 0.66606593 2.089836e-38
0.52244294 -0.32960314 0.66753244 2.089836e-38
0.51981348 -0.31617731 0.66485983 2.089836e-38
0.5201326 -0.31335804 0.6674903 2.089836e-38
0.51989841 -0.30897585 0.66319567 2.089836e-38
0.52134693 -0.30426913 0.66551971 2.089836e-38
0.53030849 -0.30048952 0.66908127 2.089836e-38
0.52411902 -0.29517695 0.66526198 2.089836e-38
0.52650148 -0.28533027 0.66500437 2.089836e-38
0.52766275 -0.27475369 0.66467583 2.089836e-38
0.53738254 -0.27102381 0.66655099 2.089836e-38
0.528822 -0.26522425 0.66515201 2.089836e-38
0.5296014 -0.25716582 0.66332424 2.089836e-38
0.53045857 -0.2531994 0.66641808 2.089836e-38
0.531416 -0.24469626 0.66492122 2.089836e-38
0.53272748 -0.23501804 0.66511828 2.089836e-38
0.53382528 -0.22503863 0.66493642 2.089836e-38
0.53472793 -0.2149978 0.66538167 2.089836e-38
0.53525919 -0.20503956 0.66528082 2.089836e-38
0.53603715 -0.19525054 0.66505462 2.089836e-38
0.53811198 -0.18490466 0.66425282 2.089836e-38
0.53957611 -0.17873631 0.6653235 2.089836e-38
0.54118747 -0.17366785 0.66521633 2.089836e-38
0.54463059 -0.1649477 0.66537344 2.089836e-38
0.54904985 -0.15857685 0.66622388 2.089836e-38
0.55395442 -0.15706801 0.66363621 2.089836e-38
0.56238139 -0.15817671 0.66467214 2.089836e-38
0.51990253 -0.32428402 0.67162222 2.089836e-38
0.52061516 -0.32388467 0.67618495 2.089836e-38
0.52033448 -0.31505153 0.67450708 2.089836e-38
0.52178532 -0.30498454 0.67477953 2.089836e-38
0.52478367 -0.29487133 0.67491305 2.089836e-38
0.52732587 -0.28515217 0.6749016 2.089836e-38
0.52862912 -0.27524281 0.67511988 2.089836e-38
0.52952689 -0.26615971 0.67340165 2.089836e-38
0.53036982 -0.26280877 0.67688507 2.089836e-38
0.53115022 -0.25511989 0.67498547 2.089836e-38
0.53254157 -0.24538632 0.67489517 2.089836e-38
0.53406513 -0.23497261 0.67491591 2.089836e-38
0.5354268 -0.22484486 0.67496985 2.089836e-38
0.53629917 -0.21520591 0.67480898 2.089836e-38
0.53686595 -0.20512196 0.6748994 2.089836e-38
0.5375331 -0.19482328 0.6754083 2.089836e-38
0.53837556 -0.18517992 0.67439836 2.089836e-38
0.54030871 -0.18173344 0.67866343 2.089836e-38
0.53964889 -0.1791179 0.67134392 2.089836e-38
0.54236931 -0.17501199 0.67543745 2.089836e-38
0.54664201 -0.16511783 0.6751278 2.089836e-38
0.54946923 -0.15878066 0.67510933 2.089836e-38
0.55045927 -0.15676108 0.67586911 2.089836e-38
0.52452767 -0.33061889 0.68540585 2.089836e-38
0.52285773 -0.32470015 0.68423885 2.089836e-38
0.52095103 -0.31501341 0.68425483 2.089836e-38
0.51948851 -0.30047566 0.68850541 2.089836e-38
0.52190256 -0.30512753 0.68519109 2.089836e-38
0.52497685 -0.29513597 0.68494523 2.089836e-38
0.52795851 -0.28504902 0.68502855 2.089836e-38
0.53158617 -0.28323436 0.68850142 2.089836e-38
0.5294162 -0.27567068 0.68484038 2.089836e-38
0.53009826 -0.27102363 0.68615764 2.089836e-38
0.5274111 -0.26688448 0.68243361 2.089836e-38
0.53083885 -0.26506838 0.68548721 2.089836e-38
0.53210574 -0.25484374 0.68479127 2.089836e-38
0.529791 -0.2491564 0.68678981 2.089836e-38
0.53359216 -0.24478565 0.68507689 2.089836e-38
0.53505093 -0.23525216 0.68494475 2.089836e-38
0.53658015 -0.2253217 0.68496633 2.089836e-38
0.53785437 -0.21463309 0.68491828 2.089836e-38
0.5383727 -0.20490761 0.68457031 2.089836e-38
0.53887212 -0.19537269 0.68499595 2.089836e-38
0.53935802 -0.18687576 0.68410033 2.089836e-38
0.54045588 -0.18273759 0.68663126 2.089836e-38
0.54223108 -0.1751806 0.68582219 2.089836e-38
0.54532391 -0.1649822 0.68680602 2.089836e-38
0.54870558 -0.15858327 0.68494743 2.089836e-38
0.55393726 -0.15657301 0.68620616 2.089836e-38
0.52201271 -0.32397977 0.69549125 2.089836e-38
0.52132088 -0.31441575 0.69532132 2.089836e-38
0.53204149 -0.31887999 0.69305432 2.089836e-38
0.52321053 -0.30483124 0.69472748 2.089836e-38
0.52596027 -0.29487324 0.69484538 2.089836e-38
0.52857989 -0.28495479 0.69491273 2.089836e-38
0.52969414 -0.27764151 0.69272828 2.089836e-38
0.5306704 -0.27380994 0.69575858 2.089836e-38
0.53186387 -0.26476255 0.69506603 2.089836e-38
0.53309172 -0.25517023 0.69497752 2.089836e-38
0.53460097 -0.24508803 0.69501925 2.089836e-38
0.53603739 -0.2346974 0.69501185 2.089836e-38
0.53735822 -0.22485974 0.69503778 2.089836e-38
0.53863841 -0.21538223 0.69519007 2.089836e-38
0.53951252 -0.20590012 0.69342083 2.089836e-38
0.54033715 -0.20306936 0.69746637 2.089836e-38
0.53978586 -0.19621459 0.69104826 2.089836e-38
0.54066789 -0.19474429 0.69580513 2.089836e-38
0.54137057 -0.18491672 0.69503087 2.089836e-38
0.54372168 -0.17488092 0.69438982 2.089836e-38
0.54734391 -0.16487703 0.69378579 2.089836e-38
0.54952198 -0.15942134 0.69456035 2.089836e-38
0.55161327 -0.1578355 0.69606256 2.089836e-38
0.56428647 -0.15806085 0.69049871 2.089836e-38
0.52661967 -0.33022267 0.70771796 2.089836e-38
0.52301908 -0.32458764 0.70550698 2.089836e-38
0.52275944 -0.31517282 0.70539862 2.089836e-38
0.52393478 -0.30506396 0.70493162 2.089836e-38
0.52648497 -0.2950668 0.7049824 2.089836e-38
0.5288673 -0.28597412 0.70466626 2.089836e-38
0.53030694 -0.28123519 0.70658249 2.089836e-38
0.5315389 -0.27518067 0.70500761 2.089836e-38
0.53320086 -0.26510796 0.70491087 2.089836e-38
0.53463137 -0.25510201 0.70479584 2.089836e-38
0.54570383 -0.25808859 0.70132661 2.089836e-38
0.52672523 -0.24684104 0.70370144 2.089836e-38
0.5360139 -0.24494377 0.70517486 2.089836e-38
0.5370847 -0.23521852 0.70479357 2.089836e-38
0.53828532 -0.22510532 0.70501345 2.089836e-38
0.53935522 -0.21572061 0.70434678 2.089836e-38
0.54025787 -0.21189809 0.70818806 2.089836e-38
0.53989762 -0.20937307 0.70113498 2.089836e-38
0.54084885 -0.20479098 0.70504415 2.089836e-38
0.53263342 -0.19991666 0.70242023 2.089836e-38
0.54202068 -0.19496907 0.70500237 2.089836e-38
0.54357988 -0.18480732 0.70514578 2.089836e-38
0.53201574 -0.17610897 0.7015627 2.089836e-38
0.54558444 -0.1749097 0.70503169 2.089836e-38
0.54768842 -0.16514893 0.70485628 2.089836e-38
0.55039972 -0.16094273 0.70730889 2.089836e-38
0.55489665 -0.15749359 0.70555598 2.089836e-38
0.56032932 -0.15484934 0.70906502 2.089836e-38
0.52892548 -0.33119354 0.7120716 2.089836e-38
0.53322732 -0.33358163 0.71608698 2.089836e-38
0.52469581 -0.32418132 0.71422201 2.089836e-38
0.5306291 -0.32954288 0.71960008 2.089836e-38
0.52421516 -0.31467962 0.71546447 2.089836e-38
0.52536017 -0.30499479 0.71468383 2.089836e-38
0.5276382 -0.29497448 0.71508646 2.089836e-38
0.52939862 -0.28770259 0.71407109 2.089836e-38
0.53075182 -0.28311592 0.71543574 2.089836e-38
0.53241783 -0.27522445 0.71508789 2.089836e-38
0.53436232 -0.2651346 0.71502656 2.089836e-38
0.53587455 -0.2547479 0.71501559 2.089836e-38
0.5370819 -0.24508595 0.71498793 2.089836e-38
0.54725271 -0.24743539 0.71535236 2.089836e-38
0.5382815 -0.23515692 0.71481884 2.089836e-38
0.539388 -0.22552013 0.71443957 2.089836e-38
0.54033756 -0.22182918 0.71740735 2.089836e-38
0.53987139 -0.21808931 0.71119517 2.089836e-38
0.54095948 -0.21471606 0.71544695 2.089836e-38
0.54188442 -0.20510876 0.71490234 2.089836e-38
0.5430491 -0.19482678 0.71536905 2.089836e-38
0.54419118 -0.18546402 0.71542078 2.089836e-38
0.54724878 -0.17524277 0.71445692 2.089836e-38
0.54935712 -0.16758454 0.71386158 2.089836e-38
0.55142337 -0.16316698 0.71437562 2.089836e-38
0.55623788 -0.15833172 0.71361262 2.089836e-38
0.56378192 -0.15680368 0.71362394 2.089836e-38
0.53572756 -0.33434063 0.72155935 2.089836e-38
0.52564985 -0.32300773 0.7254923 2.089836e-38
0.52531284 -0.3154293 0.72520536 2.089836e-38
0.52673548 -0.30501527 0.72496879 2.089836e-38
0.5287503 -0.29560947 0.72471255 2.089836e-38
0.53020823 -0.29163066 0.72828877 2.089836e-38
0.52987546 -0.28923452 0.72136807 2.089836e-38
0.53146613 -0.28468779 0.7251913 2.089836e-38
0.53351545 -0.27467677 0.72504556 2.089836e-38
0.53537881 -0.26477042 0.72521913 2.089836e-38
0.52798772 -0.25063372 0.72732401 2.089836e-38
0.53677845 -0.25495774 0.72501832 2.089836e-38
0.54646558 -0.25331831 0.7201494 2.089836e-38
0.53803247 -0.24508426 0.72478229 2.089836e-38
0.53928012 -0.23542927 0.72464824 2.089836e-38
0.54019618 -0.23225896 0.72831106 2.089836e-38
0.53971022 -0.228386 0.72094274 2.089836e-38
0.54086739 -0.22443856 0.72557575 2.089836e-38
0.54200923 -0.21498567 0.72475308 2.089836e-38
0.54332274 -0.20501785 0.72515219 2.089836e-38
0.54431289 -0.19512329 0.72486484 2.089836e-38
0.54528886 -0.18506603 0.72531968 2.089836e-38
0.54665643 -0.17466535 0.72510874 2.089836e-38
0.54853284 -0.16702849 0.723575 2.089836e-38
0.55271095 -0.16392298 0.72579819 2.089836e-38
0.55737484 -0.15870245 0.72383189 2.089836e-38
0.56228215 -0.15620238 0.72749126 2.089836e-38
0.53354943 -0.33253762 0.73734748 2.089836e-38
0.54035121 -0.33760446 0.73834074 2.089836e-38
0.52782238 -0.32429028 0.73472095 2.089836e-38
0.52741802 -0.31498444 0.7350179 2.089836e-38
0.528117 -0.30495182 0.73496193 2.089836e-38
0.5294863 -0.29725316 0.73485309 2.089836e-38
0.53053194 -0.29254538 0.73576826 2.089836e-38
0.53214788 -0.28499579 0.73506963 2.089836e-38
0.53414422 -0.27514273 0.73483503 2.089836e-38
0.53566402 -0.26515806 0.73532104 2.089836e-38
0.53718609 -0.25487924 0.73495674 2.089836e-38
0.53888661 -0.24454184 0.73477829 2.089836e-38
0.55050659 -0.24110676 0.73243558 2.089836e-38
0.53986984 -0.23860998 0.73462409 2.089836e-38
0.54069686 -0.23354039 0.73528498 2.089836e-38
0.54177052 -0.22513184 0.73485875 2.089836e-38
0.54303849 -0.21486333 0.73491281 2.089836e-38
0.54427731 -0.20474313 0.73526466 2.089836e-38
0.54532546 -0.19531371 0.73489952 2.089836e-38
0.54645681 -0.18482901 0.73544437 2.089836e-38
0.54790419 -0.17552136 0.73457628 2.089836e-38
0.55106074 -0.17196298 0.73837727 2.089836e-38
0.54946649 -0.16950062 0.733127 2.089836e-38
0.55373144 -0.16481456 0.73650301 2.089836e-38
0.55718052 -0.15872152 0.7352916 2.089836e-38
0.56476772 -0.15702346 0.73337311 2.089836e-38
0.57121569 -0.15663652 0.73361158 2.089836e-38
0.53504461 -0.33331797 0.748676 2.089836e-38
0.52860302 -0.32367972 0.74528664 2.089836e-38
0.53098649 -0.32908323 0.7457341 2.089836e-38
0.56759495 -0.32720101 0.74900413 2.089836e-38
0.57199258 -0.32213104 0.74743718 2.089836e-38
0.52917916 -0.31508395 0.74493593 2.089836e-38
0.53010511 -0.31071144 0.74855751 2.089836e-38
0.57402217 -0.312154 0.74759322 2.089836e-38
0.52954406 -0.30598328 0.74230313 2.089836e-38
0.53049457 -0.30401224 0.74715489 2.089836e-38
0.57684344 -0.3032937 0.74884349 2.089836e-38
0.53137201 -0.29491255 0.74493027 2.089836e-38
0.53311545 -0.28517309 0.74473554 2.089836e-38
0.53471971 -0.27504942 0.7450757 2.089836e-38
0.53592819 -0.26501521 0.7452811 2.089836e-38
0.58277738 -0.26183319 0.74908835 2.089836e-38
0.53734565 -0.25512317 0.74518597 2.089836e-38
0.58201575 -0.25837958 0.74993473 2.089836e-38
0.53899187 -0.24542747 0.7448529 2.089836e-38
0.54020631 -0.24103513 0.74894822 2.089836e-38
0.53986317 -0.2394098 0.74243081 2.089836e-38
0.5409081 -0.2349017 0.7454083 2.089836e-38
0.54266483 -0.22486229 0.74525845 2.089836e-38
0.58840621 -0.22830327 0.74973613 2.089836e-38
0.54410779 -0.21513756 0.74521863 2.089836e-38
0.59106028 -0.21660626 0.74911332 2.089836e-38
0.54553044 -0.20529605 0.74530536 2.089836e-38
0.59334129 -0.20313916 0.74891043 2.089836e-38
0.54678065 -0.19479883 0.74507064 2.089836e-38
0.54815114 -0.18526088 0.74501872 2.089836e-38
0.55033988 -0.18276912 0.74952084 2.089836e-38
0.54919523 -0.17805164 0.74354017 2.089836e-38
0.55157667 -0.17404138 0.7459923 2.089836e-38
0.57842255 -0.17676455 0.7466749 2.089836e-38
0.55610716 -0.16528623 0.74450469 2.089836e-38
0.56091124 -0.16100025 0.74404675 2.089836e-38
0.55987281 -0.15958692 0.74985552 2.089836e-38
0.56350178 -0.15701085 0.74513203 2.089836e-38
0.5368861 -0.33303201 0.75539827 2.089836e-38
0.54353458 -0.33323872 0.75867122 2.089836e-38
0.55600786 -0.33092067 0.75584245 2.089836e-38
0.56345075 -0.33236307 0.75031149 2.089836e-38
0.5298425 -0.32235205 0.751176 2.089836e-38
0.53465074 -0.32474187 0.75503814 2.089836e-38
0.54468936 -0.32517442 0.75844741 2.089836e-38
0.55503571 -0.32454574 0.75642753 2.089836e-38
0.56216043 -0.32394043 0.75407428 2.089836e-38
0.52993548 -0.31875014 0.75106245 2.089836e-38
0.53391337 -0.31462827 0.75549167 2.089836e-38
0.54461586 -0.31480512 0.75894636 2.089836e-38
0.55506736 -0.31523764 0.75785524 2.089836e-38
0.56382054 -0.3146891 0.75540024 2.089836e-38
0.57118219 -0.3149057 0.75064802 2.089836e-38
0.53410429 -0.30515513 0.75605792 2.089836e-38
0.54411495 -0.3081758 0.75974047 2.089836e-38
0.55531949 -0.30579084 0.75920117 2.089836e-38
0.56453437 -0.30460429 0.75670475 2.089836e-38
0.57219386 -0.3039293 0.75293171 2.089836e-38
0.53475446 -0.29510906 0.75557572 2.089836e-38
0.55670297 -0.29518953 0.75927633 2.089836e-38
0.564758 -0.29492134 0.75683784 2.089836e-38
0.5723241 -0.29460445 0.75392044 2.089836e-38
0.53652686 -0.28508398 0.75518668 2.089836e-38
0.54094732 -0.28251284 0.75917286 2.089836e-38
0.55565614 -0.28457195 0.7592653 2.089836e-38
0.56483495 -0.28502673 0.75670743 2.089836e-38
0.57315701 -0.28444484 0.75393516 2.089836e-38
0.5374952 -0.27463734 0.75430167 2.089836e-38
0.54251802 -0.27383801 0.75900477 2.089836e-38
0.55476278 -0.27497178 0.75916588 2.089836e-38
0.56476837 -0.27505139 0.7567417 2.089836e-38
0.5738349 -0.27450687 0.75385386 2.089836e-38
0.53792995 -0.26487461 0.7532537 2.089836e-38
0.54225975 -0.26443124 0.75819516 2.089836e-38
0.55492556 -0.26516339 0.75902373 2.089836e-38
0.56459153 -0.26500863 0.75689638 2.089836e-38
0.57466215 -0.26489589 0.75357962 2.089836e-38
0.53877217 -0.25537249 0.75264651 2.089836e-38
0.54323745 -0.25447151 0.7579509 2.089836e-38
0.55598754 -0.25541419 0.75900316 2.089836e-38
0.56476945 -0.25522172 0.75686842 2.089836e-38
0.57411045 -0.25470242 0.75432277 2.089836e-38
0.58148748 -0.25376776 0.75109422 2.089836e-38
0.5396415 -0.24690005 0.75142753 2.089836e-38
0.54346043 -0.24445972 0.75693768 2.089836e-38
0.55706966 -0.24513084 0.7593776 2.089836e-38
0.56435192 -0.24549522 0.75744241 2.089836e-38
0.5745033 -0.24521679 0.75480789 2.089836e-38
0.58182013 -0.24473904 0.75243479 2.089836e-38
0.54473376 -0.23482381 0.75629932 2.089836e-38
0.55616087 -0.2357142 0.75982261 2.089836e-38
0.56544369 -0.23516773 0.75827986 2.089836e-38
0.57532561 -0.2349523 0.7555635 2.089836e-38
0.58225739 -0.23514457 0.75331914 2.089836e-38
0.54631239 -0.22494672 0.7555486 2.089836e-38
0.55261785 -0.2234696 0.75975406 2.089836e-38
0.5662443 -0.22592877 0.75914448 2.089836e-38
0.5745877 -0.22503416 0.75698 2.089836e-38
0.58361048 -0.22371919 0.75364828 2.089836e-38
0.5473516 -0.21484298 0.75417578 2.089836e-38
0.55237138 -0.2157526 0.7592212 2.089836e-38
0.56874919 -0.21567188 0.75962919 2.089836e-38
0.57495809 -0.21483476 0.75802046 2.089836e-38
0.58307523 -0.2145973 0.75503498 2.089836e-38
0.54837954 -0.20494749 0.75383145 2.089836e-38
0.55167794 -0.2036721 0.75838208 2.089836e-38
0.57520896 -0.2051346 0.75854933 2.089836e-38
0.58389932 -0.20509551 0.75573915 2.089836e-38
0.54892308 -0.19537693 0.7524792 2.089836e-38
0.55176955 -0.19452107 0.75755209 2.089836e-38
0.57607287 -0.19526206 0.75824904 2.089836e-38
0.58486181 -0.19472781 0.75578111 2.089836e-38
0.59002906 -0.19953281 0.75252473 2.089836e-38
0.54956532 -0.18844321 0.75043309 2.089836e-38
0.55278438 -0.18476467 0.75564814 2.089836e-38
0.57634664 -0.18463965 0.75829566 2.089836e-38
0.58561635 -0.18492977 0.75508088 2.089836e-38
0.55515951 -0.17465878 0.75521672 2.089836e-38
0.56926417 -0.17169337 0.75961494 2.089836e-38
0.57449162 -0.17506862 0.75830013 2.089836e-38
0.58432245 -0.17523693 0.75485301 2.089836e-38
0.59006286 -0.17484385 0.7524879 2.089836e-38
0.55695492 -0.16562051 0.75406665 2.089836e-38
0.56495953 -0.16446605 0.75725436 2.089836e-38
0.57423317 -0.16467474 0.7573722 2.089836e-38
0.58216566 -0.16589548 0.75546628 2.089836e-38
0.56535155 -0.15832084 0.75182372 2.089836e-38
0.57411355 -0.15848579 0.75419182 2.089836e-38
0.54844797 -0.33291894 0.76025903 2.089836e-38
0.55042851 -0.33191726 0.76077783 2.089836e-38
0.54899591 -0.32867765 0.7601856 2.089836e-38
0.5506894 -0.32986742 0.76047611 2.089836e-38
0.53942132 -0.30220184 0.76012874 2.089836e-38
0.5452264 -0.30361146 0.76048493 2.089836e-38
0.55141991 -0.30220261 0.76038361 2.089836e-38
0.53931415 -0.29553542 0.7602554 2.089836e-38
0.54437113 -0.294884 0.76100928 2.089836e-38
0.55156875 -0.2948491 0.76067394 2.089836e-38
0.54496777 -0.28518167 0.76080048 2.089836e-38
0.55132771 -0.28675389 0.76030213 2.089836e-38
0.5457598 -0.27539414 0.76044226 2.089836e-38
0.54694206 -0.26536021 0.76044792 2.089836e-38
0.55105621 -0.26042795 0.76005191 2.089836e-38
0.54825485 -0.25609237 0.76037073 2.089836e-38
0.55102754 -0.25440747 0.76040751 2.089836e-38
0.54841667 -0.24636878 0.76111698 2.089836e-38
0.55204213 -0.24476682 0.76041681 2.089836e-38
0.57461888 -0.24475886 0.76586592 2.089836e-38
0.55436724 -0.23486063 0.76034433 2.089836e-38
0.55651528 -0.22587493 0.76019579 2.089836e-38
0.56163609 -0.22438972 0.76032716 2.089836e-38
0.55678123 -0.2135649 0.76046652 2.089836e-38
0.56336093 -0.21495475 0.7605803 2.089836e-38
0.55619019 -0.20506045 0.76119637 2.089836e-38
0.56526768 -0.20511129 0.76109612 2.089836e-38
0.55649304 -0.19498251 0.76181722 2.089836e-38
0.56477112 -0.19519402 0.76133078 2.089836e-38
0.57085186 -0.19376782 0.76009309 2.089836e-38
0.55728161 -0.18558885 0.76151353 2.089836e-38
0.56436586 -0.18494844 0.76170349 2.089836e-38
0.57071763 -0.18617295 0.7602427 2.089836e-38
0.55884266 -0.17600153 0.76098943 2.089836e-38
0.5645625 -0.17512171 0.76091832 2.089836e-38
0.56378233 -0.16917139 0.76014912 2.089836e-38
0.56470847 -0.1823986 0.77365947 2.089836e-38
0.52962941 -0.080780372 0.62737536 1.3853626e-38
0.53088397 -0.081841677 0.62553823 1.3853626e-38
0.5010196 -0.07410349 0.62143087 1.3853626e-38
0.51669317 -0.072439559 0.62450379 1.3853626e-38
0.52428246 -0.07564418 0.62543708 1.3853626e-38
0.47554702 -0.060876288 0.62155759 1.3853626e-38
0.50881666 -0.060098238 0.62474644 1.3853626e-38
0.51390666 -0.065203696 0.62547702 1.3853626e-38
0.50459391 -0.05475793 0.62577468 1.3853626e-38
0.49792242 -0.042831518 0.62657344 1.3853626e-38
0.50094473 -0.047950953 0.62460226 1.3853626e-38
0.49763405 -0.03662245 0.62630004 1.3853626e-38
0.50206077 -0.032529108 0.62381631 1.3853626e-38
0.50713271 -0.027089784 0.62550318 1.3853626e-38
0.51258516 -0.022128094 0.6249364 1.3853626e-38
0.51793784 -0.01754507 0.6250394 1.3853626e-38
0.52323401 -0.013008503 0.62473464 1.3853626e-38
0.52804792 -0.0087571023 0.62548798 1.3853626e-38
0.53456676 -0.0032253661 0.62522352 1.3853626e-38
0.53937787 0.0010455921 0.62628871 1.3853626e-38
0.5445208 0.0056761322 0.62517232 1.3853626e-38
0.5548625 0.015046279 0.62514311 1.3853626e-38
0.56006718 0.019506874 0.62498963 1.3853626e-38
0.56595629 0.024786621 0.6256994 1.3853626e-38
0.57102853 0.029546032 0.62479788 1.3853626e-38
0.57599074 0.03410222 0.62578416 1.3853626e-38
0.5826326 0.038927808 0.62447214 1.3853626e-38
0.58821303 0.042110007 0.62492877 1.3853626e-38
0.59222806 0.044173781 0.62427884 1.3853626e-38
0.52924973 -0.080484837 0.63072038 1.3853626e-38
0.53286773 -0.081628598 0.63182747 1.3853626e-38
0.51947933 -0.071421124 0.63393301 1.3853626e-38
0.52528054 -0.075672351 0.63383389 1.3853626e-38
0.50970936 -0.061021708 0.63600481 1.3853626e-38
0.51424032 -0.065879948 0.63495034 1.3853626e-38
0.50512636 -0.055250436 0.63504976 1.3853626e-38
0.49857807 -0.043501627 0.63464868 1.3853626e-38
0.50108951 -0.048221946 0.63516581 1.3853626e-38
0.49740541 -0.036873735 0.63546985 1.3853626e-38
0.50207692 -0.031721897 0.63505024 1.3853626e-38
0.50696212 -0.02728379 0.63498574 1.3853626e-38
0.5129357 -0.022054369 0.63514638 1.3853626e-38
0.51691681 -0.017800462 0.63441885 1.3853626e-38
0.52310771 -0.013230502 0.63414341 1.3853626e-38
0.52853811 -0.0085565057 0.63452578 1.3853626e-38
0.53407478 -0.0038412479 0.63483286 1.3853626e-38
0.53865242 0.00011765305 0.63518655 1.3853626e-38
0.54481101 0.0057121636 0.63475627 1.3853626e-38
0.55472958 0.014611353 0.63468683 1.3853626e-38
0.56034207 0.019525334 0.63520825 1.3853626e-38
0.56557924 0.024198158 0.63511372 1.3853626e-38
0.57127362 0.029495429 0.6341275 1.3853626e-38
0.57614422 0.033705175 0.63448131 1.3853626e-38
0.5823794 0.038554788 0.63593286 1.3853626e-38
0.5868842 0.042118758 0.63583332 1.3853626e-38
0.59190303 0.045677584 0.63568956 1.3853626e-38
0.51969826 -0.081506178 0.64587212 1.3853626e-38
0.52963948 -0.08074908 0.64801049 1.3853626e-38
0.53314894 -0.083274253 0.64593703 1.3853626e-38
0.51846135 -0.070534065 0.64506638 1.3853626e-38
0.5239929 -0.075476319 0.64366108 1.3853626e-38
0.50973797 -0.060487714 0.64423639 1.3853626e-38
0.514054 -0.06549222 0.64470321 1.3853626e-38
0.50573361 -0.054997023 0.64412242 1.3853626e-38
0.49876648 -0.042714998 0.64532113 1.3853626e-38
0.5016216 -0.047185838 0.64252591 1.3853626e-38
0.49810424 -0.037024662 0.64511657 1.3853626e-38
0.50255376 -0.032461762 0.64582473 1.3853626e-38
0.50734419 -0.027466564 0.64537948 1.3853626e-38
0.51231337 -0.022816673 0.6458993 1.3853626e-38
0.51741111 -0.018306272 0.64478403 1.3853626e-38
0.52351451 -0.012958447 0.6445573 1.3853626e-38
0.52874899 -0.0083103161 0.64520252 1.3853626e-38
0.53380805 -0.0038581691 0.64519691 1.3853626e-38
0.53849721 0.00028454201 0.64498729 1.3853626e-38
0.54494739 0.0061293165 0.64499974 1.3853626e-38
0.5549438 0.015129074 0.64516419 1.3853626e-38
0.56004792 0.019539369 0.64243585 1.3853626e-38
0.55258423 0.022912897 0.64565408 1.3853626e-38
0.56580693 0.024746506 0.6450724 1.3853626e-38
0.5710516 0.029431779 0.64529389 1.3853626e-38
0.57574993 0.033387959 0.64438504 1.3853626e-38
0.58151162 0.038641047 0.64641988 1.3853626e-38
0.58686149 0.04289433 0.6462388 1.3853626e-38
0.59122646 0.04632324 0.64602292 1.3853626e-38
0.53346592 -0.082386218 0.6516149 1.3853626e-38
0.51911891 -0.071438342 0.65495294 1.3853626e-38
0.52348405 -0.075606495 0.65418899 1.3853626e-38
0.5099417 -0.061192639 0.6575104 1.3853626e-38
0.51402164 -0.065801762 0.65530461 1.3853626e-38
0.50490278 -0.055328768 0.65522659 1.3853626e-38
0.48904777 -0.046449289 0.65858608 1.3853626e-38
0.49835047 -0.044396423 0.6552524 1.3853626e-38
0.49922562 -0.03920684 0.65041196 1.3853626e-38
0.50298369 -0.034723576 0.65425974 1.3853626e-38
0.50758636 -0.027007125 0.65529078 1.3853626e-38
0.51261562 -0.022507697 0.6549558 1.3853626e-38
0.51807958 -0.018036878 0.65403312 1.3853626e-38
0.52391773 -0.012930908 0.65449113 1.3853626e-38
0.52872205 -0.0083286408 0.65559363 1.3853626e-38
0.5338195 -0.0034965018 0.6546014 1.3853626e-38
0.53893048 0.0012458507 0.65516096 1.3853626e-38
0.54476225 0.0064833015 0.65531832 1.3853626e-38
0.55516058 0.015708547 0.6548723 1.3853626e-38
0.5647555 0.024164073 0.65511036 1.3853626e-38
0.57057816 0.029373184 0.65528446 1.3853626e-38
0.5759393 0.034175981 0.65489453 1.3853626e-38
0.58142138 0.039034121 0.65453923 1.3853626e-38
0.58640063 0.043392215 0.6549316 1.3853626e-38
0.52893573 -0.081289284 0.66504395 1.3853626e-38
0.53139019 -0.08368849 0.66559786 1.3853626e-38
0.51888674 -0.071006745 0.66528952 1.3853626e-38
0.52375215 -0.07598643 0.66444886 1.3853626e-38
0.50958329 -0.060689956 0.66470158 1.3853626e-38
0.51412916 -0.065730445 0.66518283 1.3853626e-38
0.50431043 -0.054725874 0.66482466 1.3853626e-38
0.49812546 -0.045062978 0.66424257 1.3853626e-38
0.50049293 -0.046581354 0.66778302 1.3853626e-38
0.49852681 -0.037238482 0.66647243 1.3853626e-38
0.50217515 -0.03149667 0.66699255 1.3853626e-38
0.50661993 -0.027202658 0.66610903 1.3853626e-38
0.51258838 -0.022174919 0.66434985 1.3853626e-38
0.50576258 -0.013325967 0.66532463 1.3853626e-38
0.5177058 -0.017678548 0.66498107 1.3853626e-38
0.5233075 -0.012607255 0.66537386 1.3853626e-38
0.52870053 -0.0077345455 0.66480577 1.3853626e-38
0.53371131 -0.0032347725 0.66502714 1.3853626e-38
0.53874737 0.0012992288 0.66526753 1.3853626e-38
0.54456836 0.0065571275 0.66443604 1.3853626e-38
0.53909492 0.013974189 0.66584569 1.3853626e-38
0.54845619 0.010032207 0.66603655 1.3853626e-38
0.55487984 0.015585973 0.66536283 1.3853626e-38
0.56521904 0.024704821 0.66446781 1.3853626e-38
0.57024676 0.029317319 0.66493803 1.3853626e-38
0.5755558 0.034158427 0.66540802 1.3853626e-38
0.58147335 0.039212801 0.66631323 1.3853626e-38
0.58655524 0.042964216 0.66515416 1.3853626e-38
0.59288096 0.04555257 0.66771901 1.3853626e-38
0.52892852 -0.081225872 0.67378807 1.3853626e-38
0.5322637 -0.08382912 0.6748544 1.3853626e-38
0.5190866 -0.071223646 0.67354667 1.3853626e-38
0.52400565 -0.076416813 0.67546916 1.3853626e-38
0.50876927 -0.060116291 0.67247331 1.3853626e-38
0.5138219 -0.06560082 0.67516458 1.3853626e-38
0.50426942 -0.054858763 0.67512369 1.3853626e-38
0.4969441 -0.044495929 0.67685705 1.3853626e-38
0.49857995 -0.038010653 0.67409182 1.3853626e-38
0.50264418 -0.033300318 0.67414451 1.3853626e-38
0.50774789 -0.027013104 0.67393333 1.3853626e-38
0.51274943 -0.021817222 0.6746462 1.3853626e-38
0.51765054 -0.017342275 0.67555887 1.3853626e-38
0.52277321 -0.012736405 0.6746608 1.3853626e-38
0.5276742 -0.0083671743 0.67464739 1.3853626e-38
0.53359342 -0.0030216435 0.67564446 1.3853626e-38
0.53884262 0.0016714098 0.67447037 1.3853626e-38
0.5438863 0.006214295 0.67474914 1.3853626e-38
0.54880923 0.010652567 0.6764068 1.3853626e-38
0.55488586 0.015865432 0.67469919 1.3853626e-38
0.56471097 0.024414256 0.67465985 1.3853626e-38
0.57017517 0.029258415 0.67541516 1.3853626e-38
0.57520217 0.033983465 0.67523575 1.3853626e-38
0.58061856 0.03906896 0.67644119 1.3853626e-38
0.58326846 0.041522712 0.67828715 1.3853626e-38
0.52789718 -0.082412519 0.68637425 1.3853626e-38
0.5331443 -0.083746761 0.6865322 1.3853626e-38
0.51827639 -0.071277998 0.68527538 1.3853626e-38
0.52359152 -0.076110438 0.68510187 1.3853626e-38
0.50899166 -0.060811989 0.68512714 1.3853626e-38
0.51320708 -0.065660253 0.68564773 1.3853626e-38
0.50443357 -0.055185448 0.68514973 1.3853626e-38
0.49774218 -0.044276912 0.68377048 1.3853626e-38
0.50077569 -0.048621353 0.68564481 1.3853626e-38
0.49793684 -0.036547247 0.68709236 1.3853626e-38
0.50231773 -0.032302681 0.68575448 1.3853626e-38
0.5075472 -0.026554992 0.68524021 1.3853626e-38
0.51239675 -0.021761201 0.68446648 1.3853626e-38
0.51700616 -0.017579915 0.68589091 1.3853626e-38
0.52255934 -0.012618035 0.68425345 1.3853626e-38
0.5274983 -0.0081074862 0.68520004 1.3853626e-38
0.53339499 -0.0028334346 0.68492126 1.3853626e-38
0.53851515 0.0017255221 0.68446618 1.3853626e-38
0.54362273 0.006349436 0.68537188 1.3853626e-38
0.54847735 0.010986065 0.68451351 1.3853626e-38
0.55507702 0.016468637 0.6844815 1.3853626e-38
0.54892576 0.023910893 0.68185729 1.3853626e-38
0.5513773 0.022448989 0.68071622 1.3853626e-38
0.56512421 0.025020441 0.68543166 1.3853626e-38
0.57001126 0.029206287 0.68457943 1.3853626e-38
0.57561994 0.0343372 0.68477976 1.3853626e-38
0.58053648 0.038950302 0.68546456 1.3853626e-38
0.58558542 0.043127034 0.68532968 1.3853626e-38
0.53588271 -0.082478099 0.69399774 1.3853626e-38
0.54133046 -0.082355924 0.69845152 1.3853626e-38
0.5187065 -0.07135497 0.69428527 1.3853626e-38
0.52394688 -0.075895108 0.69521755 1.3853626e-38
0.54960585 -0.070671842 0.69971627 1.3853626e-38
0.5091098 -0.060228009 0.69389343 1.3853626e-38
0.51417422 -0.065393023 0.69608694 1.3853626e-38
0.557778 -0.066484936 0.69990754 1.3853626e-38
0.50468141 -0.054832727 0.69527757 1.3853626e-38
0.5104757 -0.059943438 0.69956952 1.3853626e-38
0.49786064 -0.044217546 0.69583058 1.3853626e-38
0.50010973 -0.041350201 0.69888908 1.3853626e-38
0.49882731 -0.038560536 0.69367009 1.3853626e-38
0.50262356 -0.034666222 0.69566065 1.3853626e-38
0.50750422 -0.027529638 0.69522774 1.3853626e-38
0.51226872 -0.022716289 0.69590658 1.3853626e-38
0.50424469 -0.01979197 0.69118845 1.3853626e-38
0.5174095 -0.017366456 0.69495219 1.3853626e-38
0.52323407 -0.012748818 0.69585282 1.3853626e-38
0.5279054 -0.008345155 0.69528395 1.3853626e-38
0.53374982 -0.0033908568 0.69584239 1.3853626e-38
0.53869534 0.0016888089 0.69436574 1.3853626e-38
0.54457361 0.005866155 0.69640309 1.3853626e-38
0.54886734 0.010816049 0.69359392 1.3853626e-38
0.55521083 0.015221204 0.69580907 1.3853626e-38
0.56098676 0.019248966 0.69838029 1.3853626e-38
0.56544101 0.024220834 0.69539976 1.3853626e-38
0.57114381 0.028351858 0.69700074 1.3853626e-38
0.5760116 0.033407841 0.69448543 1.3853626e-38
0.58238328 0.037967235 0.69589448 1.3853626e-38
0.58702481 0.042057775 0.69394279 1.3853626e-38
0.59137481 0.044507544 0.69587582 1.3853626e-38
0.53492159 -0.08098796 0.70180321 1.3853626e-38
0.52620596 -0.074344814 0.70269835 1.3853626e-38
0.5344491 -0.074911654 0.70568454 1.3853626e-38
0.54298037 -0.072911821 0.70603555 1.3853626e-38
0.55068845 -0.072066799 0.70139378 1.3853626e-38
0.51734966 -0.063428745 0.70228893 1.3853626e-38
0.52452987 -0.065345079 0.70528334 1.3853626e-38
0.53514743 -0.064901873 0.70662457 1.3853626e-38
0.54414135 -0.064388052 0.70693457 1.3853626e-38
0.55423701 -0.064270534 0.70378101 1.3853626e-38
0.5615344 -0.061480053 0.70265949 1.3853626e-38
0.50675732 -0.053093914 0.70321846 1.3853626e-38
0.51421106 -0.055385944 0.70560926 1.3853626e-38
0.52503228 -0.05482807 0.70640314 1.3853626e-38
0.53533334 -0.055057108 0.70608056 1.3853626e-38
0.54528373 -0.055276923 0.70646054 1.3853626e-38
0.55477339 -0.054236129 0.70689076 1.3853626e-38
0.56404072 -0.054183464 0.70573562 1.3853626e-38
0.57244229 -0.052350603 0.70285964 1.3853626e-38
0.49934992 -0.046388075 0.70121104 1.3853626e-38
0.50465095 -0.044917181 0.7049467 1.3853626e-38
0.51483846 -0.044639651 0.70657164 1.3853626e-38
0.5248208 -0.04525131 0.70576108 1.3853626e-38
0.53548115 -0.044784676 0.70581782 1.3853626e-38
0.54527259 -0.045083147 0.70580214 1.3853626e-38
0.55480218 -0.044954214 0.70634705 1.3853626e-38
0.56454384 -0.045055605 0.7066769 1.3853626e-38
0.57396597 -0.04390562 0.70594341 1.3853626e-38
0.58232099 -0.042584483 0.70328933 1.3853626e-38
0.50615066 -0.036016844 0.70383036 1.3853626e-38
0.5152635 -0.034617528 0.70531535 1.3853626e-38
0.52488643 -0.034846131 0.70506918 1.3853626e-38
0.53493226 -0.035097763 0.70538676 1.3853626e-38
0.54532772 -0.03506536 0.70573217 1.3853626e-38
0.55495173 -0.035025053 0.70614558 1.3853626e-38
0.5644145 -0.035053894 0.7063629 1.3853626e-38
0.57468837 -0.034904514 0.70630056 1.3853626e-38
0.58400983 -0.034647662 0.70591438 1.3853626e-38
0.59196061 -0.031793099 0.70461178 1.3853626e-38
0.50857872 -0.028862162 0.70110381 1.3853626e-38
0.51513696 -0.025781589 0.70277691 1.3853626e-38
0.52461791 -0.025014939 0.7041871 1.3853626e-38
0.53510749 -0.024861317 0.70553243 1.3853626e-38
0.54502332 -0.025013991 0.70611924 1.3853626e-38
0.55442041 -0.024948945 0.70635569 1.3853626e-38
0.56454235 -0.025013676 0.70635092 1.3853626e-38
0.57478535 -0.025244148 0.70634228 1.3853626e-38
0.58486712 -0.025026014 0.70642 1.3853626e-38
0.59394562 -0.02402541 0.70618284 1.3853626e-38
0.60201538 -0.022886029 0.70358264 1.3853626e-38
0.51883334 -0.01923601 0.70071143 1.3853626e-38
0.52590942 -0.016350107 0.70226103 1.3853626e-38
0.53491962 -0.014910012 0.70447737 1.3853626e-38
0.54486436 -0.014865913 0.7060827 1.3853626e-38
0.55448616 -0.015284822 0.70650399 1.3853626e-38
0.56447059 -0.014822614 0.70643902 1.3853626e-38
0.57448006 -0.014996543 0.70640677 1.3853626e-38
0.584822 -0.014660968 0.70647275 1.3853626e-38
0.59483409 -0.015237289 0.70644486 1.3853626e-38
0.60480714 -0.014506456 0.70495945 1.3853626e-38
0.61423057 -0.013019552 0.7030353 1.3853626e-38
0.62040991 -0.010105539 0.70236778 1.3853626e-38
0.53620374 -0.0063868286 0.702088 1.3853626e-38
0.54476607 -0.0047928584 0.70463693 1.3853626e-38
0.55443299 -0.0051843966 0.70657009 1.3853626e-38
0.56442958 -0.0046356139 0.70648968 1.3853626e-38
0.5747875 -0.0049302974 0.7062546 1.3853626e-38
0.58514315 -0.0051122117 0.70609355 1.3853626e-38
0.59558463 -0.0053479793 0.70611835 1.3853626e-38
0.60572237 -0.005592464 0.70547175 1.3853626e-38
0.61497521 -0.0044739218 0.70559204 1.3853626e-38
0.62272352 -0.0039666588 0.70514673 1.3853626e-38
0.54664671 0.0031135224 0.70231992 1.3853626e-38
0.5546574 0.0051613348 0.70475614 1.3853626e-38
0.56451648 0.0047629527 0.70638335 1.3853626e-38
0.57497865 0.004603704 0.70595127 1.3853626e-38
0.58556712 0.0046266881 0.7057516 1.3853626e-38
0.59493798 0.0051113558 0.70564073 1.3853626e-38
0.60423428 0.0049851239 0.70594883 1.3853626e-38
0.61432797 0.0056007733 0.70703912 1.3853626e-38
0.62156755 0.0040527526 0.70703453 1.3853626e-38
0.54570621 0.018432986 0.70304865 1.3853626e-38
0.5570668 0.011635285 0.70179451 1.3853626e-38
0.56503874 0.015150375 0.70406109 1.3853626e-38
0.57544917 0.014878234 0.70538455 1.3853626e-38
0.58545011 0.014818233 0.70543307 1.3853626e-38
0.59497827 0.015725221 0.70534933 1.3853626e-38
0.60447001 0.015516489 0.70567924 1.3853626e-38
0.61418372 0.014922372 0.70588297 1.3853626e-38
0.62116843 0.014599591 0.70446837 1.3853626e-38
0.56807685 0.022198265 0.70139259 1.3853626e-38
0.574835 0.025172813 0.70320046 1.3853626e-38
0.58484817 0.025117593 0.70422399 1.3853626e-38
0.59463048 0.025301086 0.70494479 1.3853626e-38
0.60443521 0.024702987 0.7046966 1.3853626e-38
0.61280054 0.023906955 0.7023285 1.3853626e-38
0.57810348 0.031746481 0.70156527 1.3853626e-38
0.58560568 0.034670331 0.70276773 1.3853626e-38
0.59439307 0.03448521 0.70459646 1.3853626e-38
0.6039533 0.03201199 0.70299578 1.3853626e-38
0.58841723 0.040463969 0.70098066 1.3853626e-38
0.59172934 0.041304469 0.70201087 1.3853626e-38
0.53772575 -0.07160376 0.71920991 1.3853626e-38
0.58426058 -0.040560942 0.71736085 1.3853626e-38
0.54603165 -0.023624506 0.71113116 1.3853626e-38
0.59582913 -0.02221689 0.71278602 1.3853626e-38
0.55432343 -0.007197408 0.71241915 1.3853626e-38
0.57792175 0.0059785563 0.71038407 1.3853626e-38
0.45438939 0.19796063 0.62859607 1.9165643e-39
0.44755581 0.20661423 0.6264419 1.9165643e-39
0.45140696 0.20158951 0.62650746 1.9165643e-39
0.43862969 0.21849652 0.62625152 1.9165643e-39
0.44236597 0.21335283 0.6264441 1.9165643e-39
0.43431473 0.22479355 0.62709397 1.9165643e-39
0.42906079 0.23431022 0.628766 1.9165643e-39
0.43092036 0.23071146 0.62587863 1.9165643e-39
0.45527768 0.19719225 0.63514078 1.9165643e-39
0.4624148 0.19447216 0.63505518 1.9165643e-39
0.44715679 0.20573461 0.63496339 1.9165643e-39
0.4507741 0.20083332 0.63505393 1.9165643e-39
0.43865803 0.21832705 0.63430429 1.9165643e-39
0.44229186 0.21327271 0.6349141 1.9165643e-39
0.42281157 0.22194995 0.63336408 1.9165643e-39
0.43394163 0.22479972 0.63548952 1.9165643e-39
0.42852634 0.23554346 0.63555157 1.9165643e-39
0.43060285 0.23170547 0.63521755 1.9165643e-39
0.42830995 0.24261943 0.63580579 1.9165643e-39
0.4314459 0.24767751 0.63774687 1.9165643e-39
0.45580855 0.19763918 0.64303458 1.9165643e-39
0.46147805 0.19477069 0.64476615 1.9165643e-39
0.44736987 0.20593564 0.64462823 1.9165643e-39
0.45105514 0.20104362 0.64631248 1.9165643e-39
0.43889251 0.21826282 0.64485675 1.9165643e-39
0.44247082 0.2132106 0.64539826 1.9165643e-39
0.43414623 0.22487515 0.64509034 1.9165643e-39
0.42851451 0.23538622 0.64491349 1.9165643e-39
0.43025702 0.2306971 0.64697587 1.9165643e-39
0.42889953 0.24307196 0.64384794 1.9165643e-39
0.43201718 0.24651019 0.64474732 1.9165643e-39
0.43465275 0.25124508 0.64561391 1.9165643e-39
0.45497969 0.19694333 0.6554932 1.9165643e-39
0.46497163 0.19452615 0.65482497 1.9165643e-39
0.47029102 0.19518846 0.65972519 1.9165643e-39
0.44747683 0.2063985 0.65478987 1.9165643e-39
0.45091063 0.20115888 0.65479457 1.9165643e-39
0.43910637 0.21841329 0.65487933 1.9165643e-39
0.44256738 0.21362136 0.65501446 1.9165643e-39
0.45649067 0.21093494 0.65097922 1.9165643e-39
0.4344438 0.22479549 0.65466428 1.9165643e-39
0.42901763 0.23651505 0.65337741 1.9165643e-39
0.43079248 0.23246464 0.65570056 1.9165643e-39
0.42843896 0.24290559 0.65529203 1.9165643e-39
0.43178877 0.24823631 0.65621316 1.9165643e-39
0.43563834 0.25158432 0.6537286 1.9165643e-39
0.45601058 0.19671786 0.66497582 1.9165643e-39
0.46088031 0.19404286 0.66792965 1.9165643e-39
0.44745925 0.20621133 0.6646769 1.9165643e-39
0.4510144 0.20122854 0.6651358 1.9165643e-39
0.43899217 0.21852641 0.66483414 1.9165643e-39
0.4428201 0.213561 0.66509461 1.9165643e-39
0.43413424 0.22480823 0.66519111 1.9165643e-39
0.44511595 0.22458567 0.6685136 1.9165643e-39
0.42884159 0.23631065 0.66570002 1.9165643e-39
0.43044528 0.23094447 0.66489446 1.9165643e-39
0.42911452 0.24240573 0.66518217 1.9165643e-39
0.43174261 0.24710421 0.66390198 1.9165643e-39
0.43678561 0.25266898 0.6648885 1.9165643e-39
0.45586744 0.19691251 0.67518544 1.9165643e-39
0.46411145 0.19410372 0.67351049 1.9165643e-39
0.44751248 0.2063814 0.67519855 1.9165643e-39
0.45108268 0.20141678 0.67502475 1.9165643e-39
0.43896294 0.21869314 0.67513752 1.9165643e-39
0.44259548 0.21377598 0.67478776 1.9165643e-39
0.43435359 0.22513604 0.6750102 1.9165643e-39
0.4297207 0.23587713 0.67321485 1.9165643e-39
0.43055719 0.23298332 0.6755361 1.9165643e-39
0.42941555 0.24307086 0.67514765 1.9165643e-39
0.43200937 0.248083 0.67634177 1.9165643e-39
0.44212937 0.24465908 0.67545289 1.9165643e-39
0.43621817 0.25201899 0.67518228 1.9165643e-39
0.45631185 0.19749413 0.68468279 1.9165643e-39
0.46265697 0.19420272 0.68551642 1.9165643e-39
0.44696972 0.20659347 0.68480253 1.9165643e-39
0.45121655 0.20148088 0.68510866 1.9165643e-39
0.43901044 0.2185338 0.6851958 1.9165643e-39
0.44250417 0.21369305 0.68492454 1.9165643e-39
0.43480203 0.22483158 0.68477845 1.9165643e-39
0.42868418 0.23647125 0.68544471 1.9165643e-39
0.43102768 0.2316369 0.6850403 1.9165643e-39
0.42881137 0.24159639 0.68373477 1.9165643e-39
0.43206939 0.24635184 0.68507963 1.9165643e-39
0.43512377 0.25081965 0.68622893 1.9165643e-39
0.44116324 0.25469464 0.68641555 1.9165643e-39
0.45649457 0.19780445 0.69533408 1.9165643e-39
0.46344545 0.19438662 0.69499153 1.9165643e-39
0.47015172 0.19674614 0.69931889 1.9165643e-39
0.44769299 0.20662439 0.69461036 1.9165643e-39
0.45133951 0.20177951 0.69547391 1.9165643e-39
0.43899664 0.2190434 0.69443023 1.9165643e-39
0.44264185 0.21390991 0.69542962 1.9165643e-39
0.43489081 0.22509661 0.69527185 1.9165643e-39
0.42911902 0.23660079 0.69444323 1.9165643e-39
0.43070099 0.23188968 0.69629294 1.9165643e-39
0.42948151 0.24116616 0.69433123 1.9165643e-39
0.43211409 0.24574523 0.69581848 1.9165643e-39
0.43730989 0.25166327 0.69658357 1.9165643e-39
0.4421038 0.25469768 0.69791508 1.9165643e-39
0.45729452 0.19806612 0.70381147 1.9165643e-39
0.46437898 0.19742006 0.7046048 1.9165643e-39
0.47181457 0.19860843 0.70316827 1.9165643e-39
0.44849953 0.20783734 0.70345205 1.9165643e-39
0.45341963 0.20380037 0.70663393 1.9165643e-39
0.46530426 0.201121 0.70840359 1.9165643e-39
0.47442904 0.20489289 0.70745444 1.9165643e-39
0.48158637 0.20638807 0.70678097 1.9165643e-39
0.43976691 0.21926504 0.70122069 1.9165643e-39
0.44498032 0.21500221 0.70578885 1.9165643e-39
0.45026636 0.21041377 0.70928645 1.9165643e-39
0.4773047 0.21817942 0.70890349 1.9165643e-39
0.43672609 0.22571623 0.70490474 1.9165643e-39
0.4417969 0.22203322 0.70829141 1.9165643e-39
0.47335926 0.22404805 0.70917642 1.9165643e-39
0.42976502 0.23739874 0.70112616 1.9165643e-39
0.4330647 0.23464406 0.70605773 1.9165643e-39
0.46911842 0.23259628 0.70841575 1.9165643e-39
0.43434143 0.244763 0.70603502 1.9165643e-39
0.44059891 0.24926259 0.70922983 1.9165643e-39
0.45855963 0.24938737 0.70666933 1.9165643e-39
0.46223828 0.24470049 0.70781761 1.9165643e-39
0.43834567 0.25121173 0.7017889 1.9165643e-39
0.44486755 0.25295952 0.70572847 1.9165643e-39
0.45329905 0.25146279 0.70840812 1.9165643e-39
0.45723158 0.20685188 0.71157926 1.9165643e-39
0.46496421 0.20605263 0.7120856 1.9165643e-39
0.4719708 0.2084818 0.71169901 1.9165643e-39
0.44858837 0.21728049 0.71110153 1.9165643e-39
0.45472574 0.21510985 0.71306372 1.9165643e-39
0.46477193 0.21464494 0.71392614 1.9165643e-39
0.47327602 0.21441796 0.71184248 1.9165643e-39
0.43924168 0.22871007 0.71052933 1.9165643e-39
0.44547293 0.22546959 0.71205908 1.9165643e-39
0.45470828 0.22484663 0.71431464 1.9165643e-39
0.4642328 0.22489773 0.7133441 1.9165643e-39
0.47135472 0.22251062 0.71094483 1.9165643e-39
0.4378984 0.23589765 0.71166712 1.9165643e-39
0.44474816 0.23465788 0.71358317 1.9165643e-39
0.45450178 0.23506287 0.71408796 1.9165643e-39
0.4632991 0.23396108 0.71190292 1.9165643e-39
0.43798369 0.2425852 0.71129614 1.9165643e-39
0.44458359 0.24485025 0.71283984 1.9165643e-39
0.45363361 0.24382143 0.7130723 1.9165643e-39
0.46048808 0.2417724 0.71127999 1.9165643e-39
0.44762895 0.25045747 0.71084732 1.9165643e-39
0.45000556 0.2244212 0.72526592 1.9165643e-39
0.45159087 0.23161876 0.72311282 1.9165643e-39
