# .PCD v0.7 - Point Cloud Data file format
VERSION 0.7
FIELDS x y z rgb
SIZE 4 4 4 4
TYPE F F F F
COUNT 1 1 1 1
WIDTH 1003
HEIGHT 1
VIEWPOINT 0 0 0 1 0 0 0
POINTS 1003
DATA ascii
0.41772589 -0.33466217 0.63613278 1.4416594e-38
0.41248199 -0.32488409 0.63451672 1.4416594e-38
0.40707627 -0.31501624 0.63532394 1.4416594e-38
0.40217912 -0.30575812 0.63528168 1.4416594e-38
0.39856949 -0.29347709 0.63626254 1.4416594e-38
0.40135288 -0.2912336 0.63687199 1.4416594e-38
0.39940333 -0.28990036 0.6310575 1.4416594e-38
0.40536898 -0.28665373 0.63411653 1.4416594e-38
0.41229776 -0.28188574 0.63567615 1.4416594e-38
0.41712195 -0.27847531 0.6350081 1.4416594e-38
0.4253538 -0.27368471 0.63533837 1.4416594e-38
0.4310894 -0.27046704 0.63506633 1.4416594e-38
0.41343892 -0.26686445 0.63970405 1.4416594e-38
0.4361316 -0.26769984 0.63469505 1.4416594e-38
0.4415234 -0.26476282 0.63534325 1.4416594e-38
0.45357192 -0.41609168 0.64797646 1.4416594e-38
0.46358523 -0.41653347 0.64437723 1.4416594e-38
0.45683929 -0.40518966 0.64573312 1.4416594e-38
0.44928649 -0.39161864 0.64438701 1.4416594e-38
0.45225999 -0.3969923 0.6449855 1.4416594e-38
0.46027958 -0.3940931 0.64660096 1.4416594e-38
0.44473958 -0.38385957 0.64481658 1.4416594e-38
0.43858281 -0.37349698 0.64630151 1.4416594e-38
0.44271344 -0.37978333 0.64151704 1.4416594e-38
0.43368179 -0.36438227 0.64464605 1.4416594e-38
0.42773843 -0.35381326 0.64553541 1.4416594e-38
0.43117023 -0.35936135 0.64181316 1.4416594e-38
0.42272091 -0.34481949 0.64494264 1.4416594e-38
0.41694039 -0.33432281 0.64490026 1.4416594e-38
0.40979862 -0.32065332 0.64052093 1.4416594e-38
0.41209403 -0.32541981 0.64453918 1.4416594e-38
0.40630791 -0.31491297 0.64545727 1.4416594e-38
0.39941949 -0.30091661 0.64567411 1.4416594e-38
0.40156993 -0.30561894 0.64577937 1.4416594e-38
0.39815694 -0.29526344 0.64558601 1.4416594e-38
0.40115952 -0.29093137 0.64293003 1.4416594e-38
0.4059352 -0.28603205 0.64521301 1.4416594e-38
0.41225767 -0.28125355 0.6448552 1.4416594e-38
0.41696197 -0.27810702 0.64502007 1.4416594e-38
0.42500454 -0.27366424 0.64490861 1.4416594e-38
0.43111888 -0.27044433 0.64474356 1.4416594e-38
0.4361251 -0.26777288 0.6451121 1.4416594e-38
0.44140908 -0.26493642 0.64517599 1.4416594e-38
0.46563393 -0.42053413 0.65625 1.4416594e-38
0.45838583 -0.41046137 0.65976185 1.4416594e-38
0.46277148 -0.41668031 0.65507615 1.4416594e-38
0.45619053 -0.40604892 0.65551883 1.4416594e-38
0.44885764 -0.39302295 0.65486127 1.4416594e-38
0.45188046 -0.39842528 0.65534902 1.4416594e-38
0.44420177 -0.38482788 0.65438777 1.4416594e-38
0.438023 -0.37420756 0.65559036 1.4416594e-38
0.43301174 -0.36508116 0.6550892 1.4416594e-38
0.42757028 -0.35524872 0.65521926 1.4416594e-38
0.42224634 -0.34559718 0.65484118 1.4416594e-38
0.41653115 -0.33527792 0.65541738 1.4416594e-38
0.40863213 -0.32112041 0.65696973 1.4416594e-38
0.41175875 -0.32623613 0.65359002 1.4416594e-38
0.4054307 -0.31428078 0.65440369 1.4416594e-38
0.39997298 -0.30046678 0.65038443 1.4416594e-38
0.40199521 -0.30526856 0.65412951 1.4416594e-38
0.39839116 -0.2939297 0.65421706 1.4416594e-38
0.40021104 -0.29945645 0.6542207 1.4416594e-38
0.39837942 -0.28814545 0.65654576 1.4416594e-38
0.40490037 -0.28559422 0.65532184 1.4416594e-38
0.41176569 -0.28111589 0.65430397 1.4416594e-38
0.42256969 -0.28332883 0.65434623 1.4416594e-38
0.41674563 -0.27799848 0.65507388 1.4416594e-38
0.42488578 -0.2736201 0.65495741 1.4416594e-38
0.43109256 -0.27038479 0.65436065 1.4416594e-38
0.43577838 -0.26795959 0.65534979 1.4416594e-38
0.44091266 -0.2653037 0.6546973 1.4416594e-38
0.46785551 -0.42120886 0.66087246 1.4416594e-38
0.4594087 -0.41146359 0.66218674 1.4416594e-38
0.46309066 -0.41568005 0.66169661 1.4416594e-38
0.45422649 -0.40366927 0.66419786 1.4416594e-38
0.4484365 -0.39400175 0.66560811 1.4416594e-38
0.44396961 -0.38608706 0.66394705 1.4416594e-38
0.43805942 -0.37605682 0.66545916 1.4416594e-38
0.43274212 -0.36637431 0.66463292 1.4416594e-38
0.4273183 -0.35691169 0.66535676 1.4416594e-38
0.41836008 -0.34105071 0.66728973 1.4416594e-38
0.42170191 -0.34673128 0.66454494 1.4416594e-38
0.41524929 -0.33495739 0.66465527 1.4416594e-38
0.40892091 -0.32290593 0.66622663 1.4416594e-38
0.41165334 -0.32803702 0.66544306 1.4416594e-38
0.40492341 -0.3151058 0.66454566 1.4416594e-38
0.41074616 -0.31824967 0.66189075 1.4416594e-38
0.39841819 -0.30215356 0.66743523 1.4416594e-38
0.40089414 -0.30717307 0.66563058 1.4416594e-38
0.39807293 -0.29362124 0.66505903 1.4416594e-38
0.4012869 -0.29128259 0.66640341 1.4416594e-38
0.40582556 -0.28671306 0.66424346 1.4416594e-38
0.41158411 -0.28176573 0.66453177 1.4416594e-38
0.41670668 -0.27805588 0.66482246 1.4416594e-38
0.42540714 -0.27385372 0.66534323 1.4416594e-38
0.43122798 -0.27083281 0.66591889 1.4416594e-38
0.43618205 -0.26799148 0.66527551 1.4416594e-38
0.44099483 -0.26543126 0.6648289 1.4416594e-38
0.45290488 -0.40342098 0.67535597 1.4416594e-38
0.44789955 -0.39491519 0.67545831 1.4416594e-38
0.44168222 -0.38406011 0.67495376 1.4416594e-38
0.42785114 -0.37363386 0.67421424 1.4416594e-38
0.43596262 -0.3740128 0.67469251 1.4416594e-38
0.42913952 -0.36169517 0.67447722 1.4416594e-38
0.43181363 -0.36665434 0.67532998 1.4416594e-38
0.42518193 -0.35458848 0.67449415 1.4416594e-38
0.41888094 -0.34295884 0.67592973 1.4416594e-38
0.42164335 -0.34815568 0.67518628 1.4416594e-38
0.41491726 -0.33529481 0.67473537 1.4416594e-38
0.40804967 -0.32243577 0.67604429 1.4416594e-38
0.41117442 -0.32715863 0.67584187 1.4416594e-38
0.40403187 -0.31465852 0.67446572 1.4416594e-38
0.39817297 -0.30313149 0.67617941 1.4416594e-38
0.40062499 -0.3082262 0.67442822 1.4416594e-38
0.39720288 -0.29625055 0.67533785 1.4416594e-38
0.40120846 -0.29165146 0.67370874 1.4416594e-38
0.40608373 -0.28604096 0.67508346 1.4416594e-38
0.41102636 -0.28097439 0.6748153 1.4416594e-38
0.41596031 -0.27846795 0.67497158 1.4416594e-38
0.42490378 -0.27503473 0.67516387 1.4416594e-38
0.43370107 -0.27148694 0.67500442 1.4416594e-38
0.43815196 -0.26879677 0.67327702 1.4416594e-38
0.44240779 -0.26707333 0.67547882 1.4416594e-38
0.45739165 -0.41168776 0.68929034 1.4416594e-38
0.44993126 -0.40030968 0.68672562 1.4416594e-38
0.45326298 -0.40548447 0.68628979 1.4416594e-38
0.447575 -0.39601079 0.68481451 1.4416594e-38
0.44185293 -0.38623187 0.68529952 1.4416594e-38
0.43602002 -0.37583011 0.68474919 1.4416594e-38
0.42876458 -0.36295959 0.68580455 1.4416594e-38
0.43209827 -0.36898452 0.68552363 1.4416594e-38
0.42462066 -0.35451207 0.68423969 1.4416594e-38
0.41817579 -0.34277397 0.68547809 1.4416594e-38
0.42057544 -0.34711206 0.68375146 1.4416594e-38
0.41411579 -0.33495572 0.6849072 1.4416594e-38
0.40825769 -0.32385588 0.68446881 1.4416594e-38
0.41039014 -0.32829261 0.68807578 1.4416594e-38
0.40355036 -0.31516352 0.6852262 1.4416594e-38
0.39933026 -0.30305365 0.68405157 1.4416594e-38
0.40038291 -0.30737206 0.68525928 1.4416594e-38
0.39810294 -0.29475796 0.68496734 1.4416594e-38
0.3988204 -0.28816324 0.68789798 1.4416594e-38
0.4051708 -0.28410056 0.68517357 1.4416594e-38
0.41070589 -0.28058589 0.68511385 1.4416594e-38
0.41556475 -0.27802342 0.68562829 1.4416594e-38
0.4247328 -0.27403915 0.68561083 1.4416594e-38
0.43317902 -0.27122983 0.68505251 1.4416594e-38
0.43822321 -0.26945275 0.68517339 1.4416594e-38
0.44387522 -0.26775625 0.6851353 1.4416594e-38
0.45808494 -0.41236073 0.69595718 1.4416594e-38
0.46110192 -0.41675007 0.69899851 1.4416594e-38
0.4532879 -0.40518218 0.69466496 1.4416594e-38
0.44705093 -0.39570978 0.694848 1.4416594e-38
0.43811908 -0.38127774 0.69527113 1.4416594e-38
0.44101197 -0.38644293 0.69578588 1.4416594e-38
0.43401212 -0.3740229 0.69547075 1.4416594e-38
0.42834976 -0.36388686 0.69494152 1.4416594e-38
0.43013406 -0.36751324 0.69793832 1.4416594e-38
0.42351347 -0.35502312 0.6956327 1.4416594e-38
0.4178628 -0.34388095 0.69499904 1.4416594e-38
0.42074737 -0.34911945 0.69272846 1.4416594e-38
0.41316718 -0.33476675 0.6954 1.4416594e-38
0.40799695 -0.32464138 0.69446135 1.4416594e-38
0.4125905 -0.32954678 0.69441086 1.4416594e-38
0.40284947 -0.31504866 0.69535846 1.4416594e-38
0.39947614 -0.30452067 0.69488811 1.4416594e-38
0.4002502 -0.30881301 0.69135201 1.4416594e-38
0.39810303 -0.29505605 0.69442707 1.4416594e-38
0.39842466 -0.28843427 0.6947999 1.4416594e-38
0.40467378 -0.28425378 0.6952163 1.4416594e-38
0.41095352 -0.2805278 0.69459337 1.4416594e-38
0.41553658 -0.27797663 0.69493949 1.4416594e-38
0.42416933 -0.27330497 0.69562936 1.4416594e-38
0.43353963 -0.27076498 0.69234759 1.4416594e-38
0.43669072 -0.26951721 0.69500726 1.4416594e-38
0.44367334 -0.26813418 0.69411784 1.4416594e-38
0.46438956 -0.42131165 0.7062524 1.4416594e-38
0.45827094 -0.41229901 0.70205218 1.4416594e-38
0.46194059 -0.4177044 0.70457089 1.4416594e-38
0.44993699 -0.40083516 0.70474535 1.4416594e-38
0.45363167 -0.40538505 0.70029664 1.4416594e-38
0.44330001 -0.39155707 0.70750666 1.4416594e-38
0.43847761 -0.3833622 0.70625168 1.4416594e-38
0.44162205 -0.38850942 0.70507258 1.4416594e-38
0.43389115 -0.37518901 0.70519179 1.4416594e-38
0.42752644 -0.36353272 0.70541674 1.4416594e-38
0.4306058 -0.36896005 0.70232183 1.4416594e-38
0.42275786 -0.35479972 0.70451528 1.4416594e-38
0.41752973 -0.34472504 0.70465797 1.4416594e-38
0.40991873 -0.3305527 0.70851171 1.4416594e-38
0.41274768 -0.33538249 0.70455629 1.4416594e-38
0.40737665 -0.32503635 0.70472085 1.4416594e-38
0.40195861 -0.31451878 0.70552933 1.4416594e-38
0.39822477 -0.30585897 0.70547324 1.4416594e-38
0.3966631 -0.29287997 0.7057085 1.4416594e-38
0.39904886 -0.28950864 0.70141363 1.4416594e-38
0.40495411 -0.28536275 0.70494419 1.4416594e-38
0.41092014 -0.28058481 0.7049607 1.4416594e-38
0.41588861 -0.27774099 0.70471853 1.4416594e-38
0.42513409 -0.27259395 0.7051512 1.4416594e-38
0.44748536 -0.27119702 0.70221406 1.4416594e-38
0.43359309 -0.26826343 0.70586085 1.4416594e-38
0.44235313 -0.26733887 0.7034995 1.4416594e-38
0.46637377 -0.42402926 0.7137146 1.4416594e-38
0.45769215 -0.41266641 0.71547937 1.4416594e-38
0.46172714 -0.41780096 0.71564507 1.4416594e-38
0.44872499 -0.40154576 0.71664983 1.4416594e-38
0.45448291 -0.40858263 0.71534753 1.4416594e-38
0.4456037 -0.39616337 0.71433026 1.4416594e-38
0.45499563 -0.39296624 0.7196781 1.4416594e-38
0.43766999 -0.38310838 0.71509337 1.4416594e-38
0.44113716 -0.38878953 0.71466339 1.4416594e-38
0.43308043 -0.37520564 0.71525437 1.4416594e-38
0.42771843 -0.36548492 0.71546865 1.4416594e-38
0.42251399 -0.35547975 0.71454525 1.4416594e-38
0.41700366 -0.34489718 0.71501142 1.4416594e-38
0.40963572 -0.33079836 0.71790278 1.4416594e-38
0.412204 -0.33552775 0.71443456 1.4416594e-38
0.42485318 -0.33689618 0.71915388 1.4416594e-38
0.40662748 -0.32465076 0.71495175 1.4416594e-38
0.41074345 -0.32763153 0.71195984 1.4416594e-38
0.40191191 -0.31454432 0.71553659 1.4416594e-38
0.3978194 -0.30438894 0.71506274 1.4416594e-38
0.40011168 -0.30955684 0.717619 1.4416594e-38
0.39581731 -0.29434818 0.71493202 1.4416594e-38
0.39865196 -0.28929511 0.7184394 1.4416594e-38
0.40498877 -0.28551137 0.71462744 1.4416594e-38
0.41108403 -0.28094155 0.71391606 1.4416594e-38
0.41602865 -0.27762786 0.71482468 1.4416594e-38
0.42481187 -0.27270731 0.71467489 1.4416594e-38
0.43401212 -0.26762143 0.7154808 1.4416594e-38
0.4465394 -0.40242043 0.7265228 1.4416594e-38
0.44391429 -0.39454165 0.72400713 1.4416594e-38
0.43766147 -0.38455296 0.72533965 1.4416594e-38
0.44362774 -0.38536415 0.72546524 1.4416594e-38
0.43225634 -0.37496316 0.72439826 1.4416594e-38
0.426925 -0.36493137 0.72529632 1.4416594e-38
0.43806151 -0.3647348 0.72438323 1.4416594e-38
0.41939113 -0.35035294 0.72433227 1.4416594e-38
0.42203322 -0.35551307 0.72469717 1.4416594e-38
0.41667271 -0.34507897 0.72504056 1.4416594e-38
0.40947652 -0.33114597 0.72693181 1.4416594e-38
0.41215524 -0.3362163 0.72457272 1.4416594e-38
0.40631923 -0.32478756 0.72504705 1.4416594e-38
0.40244114 -0.31502029 0.7244305 1.4416594e-38
0.39870331 -0.30393699 0.72448289 1.4416594e-38
0.40041712 -0.30916098 0.72423887 1.4416594e-38
0.39567384 -0.29392034 0.72454178 1.4416594e-38
0.39783767 -0.28868917 0.72571975 1.4416594e-38
0.40503374 -0.2843172 0.72463918 1.4416594e-38
0.41100863 -0.28076211 0.72466773 1.4416594e-38
0.41607317 -0.27777556 0.72450143 1.4416594e-38
0.42507735 -0.27264652 0.72486424 1.4416594e-38
0.43405411 -0.26763028 0.72553337 1.4416594e-38
0.45416433 -0.41262433 0.73893178 1.4416594e-38
0.44879404 -0.4034614 0.73511446 1.4416594e-38
0.45033932 -0.40634525 0.73857999 1.4416594e-38
0.44369018 -0.3950575 0.73452497 1.4416594e-38
0.43702123 -0.38417676 0.73520684 1.4416594e-38
0.44011021 -0.38951141 0.73948181 1.4416594e-38
0.42958954 -0.37112394 0.73391056 1.4416594e-38
0.43242604 -0.37627357 0.73507917 1.4416594e-38
0.42593762 -0.36440894 0.7356984 1.4416594e-38
0.41943952 -0.35138839 0.73410338 1.4416594e-38
0.42171046 -0.35601997 0.73468608 1.4416594e-38
0.41620114 -0.34495893 0.73515153 1.4416594e-38
0.40924731 -0.33116519 0.7347067 1.4416594e-38
0.41174042 -0.33607531 0.73491549 1.4416594e-38
0.40605387 -0.32488495 0.73505223 1.4416594e-38
0.3990953 -0.31142539 0.73803759 1.4416594e-38
0.40197644 -0.31637979 0.73420292 1.4416594e-38
0.3973271 -0.3047542 0.73445839 1.4416594e-38
0.3955363 -0.29271799 0.7358551 1.4416594e-38
0.3877832 -0.28754312 0.73771417 1.4416594e-38
0.3987425 -0.28895426 0.73371357 1.4416594e-38
0.404589 -0.28489 0.73512429 1.4416594e-38
0.4113887 -0.28074497 0.73487473 1.4416594e-38
0.41648531 -0.27781647 0.73488784 1.4416594e-38
0.4248592 -0.27326995 0.73508185 1.4416594e-38
0.43144956 -0.2713829 0.7373631 1.4416594e-38
0.43591791 -0.26823688 0.73490858 1.4416594e-38
0.44128442 -0.2668443 0.73730969 1.4416594e-38
0.45483428 -0.41439539 0.74590498 1.4416594e-38
0.44798356 -0.40317446 0.74576145 1.4416594e-38
0.45142829 -0.40854484 0.74292302 1.4416594e-38
0.44305715 -0.39491263 0.74502093 1.4416594e-38
0.43690711 -0.38448387 0.74612767 1.4416594e-38
0.42949826 -0.37116081 0.74486363 1.4416594e-38
0.43235695 -0.37616608 0.74525362 1.4416594e-38
0.42596561 -0.36472017 0.74518991 1.4416594e-38
0.43374428 -0.36215076 0.74524784 1.4416594e-38
0.41929108 -0.35137874 0.74376595 1.4416594e-38
0.42172498 -0.35632324 0.74469495 1.4416594e-38
0.41617465 -0.34500363 0.74493426 1.4416594e-38
0.40909231 -0.33140597 0.74505395 1.4416594e-38
0.41179743 -0.33652413 0.74510974 1.4416594e-38
0.40557069 -0.32460737 0.74507123 1.4416594e-38
0.39897272 -0.31226096 0.7455256 1.4416594e-38
0.40164006 -0.31716874 0.74474633 1.4416594e-38
0.39520693 -0.30511492 0.7460683 1.4416594e-38
0.39578387 -0.29483074 0.7444973 1.4416594e-38
0.4004766 -0.29067171 0.74625987 1.4416594e-38
0.40502843 -0.28588292 0.74507141 1.4416594e-38
0.41110593 -0.28074184 0.74573982 1.4416594e-38
0.41609401 -0.27801603 0.74513638 1.4416594e-38
0.42472181 -0.27417806 0.74512434 1.4416594e-38
0.43267515 -0.27115381 0.74498767 1.4416594e-38
0.43798611 -0.26920107 0.7448808 1.4416594e-38
0.44190988 -0.26777884 0.74432278 1.4416594e-38
0.45873609 -0.42115477 0.75351489 1.4416594e-38
0.46128747 -0.42251429 0.75571012 1.4416594e-38
0.4549869 -0.41498074 0.75518256 1.4416594e-38
0.44773561 -0.40336722 0.75547498 1.4416594e-38
0.45052004 -0.40784207 0.75419253 1.4416594e-38
0.43987787 -0.39022911 0.7516588 1.4416594e-38
0.44270015 -0.39523312 0.75566566 1.4416594e-38
0.4364197 -0.38464287 0.75522047 1.4416594e-38
0.42986608 -0.37139452 0.75374699 1.4416594e-38
0.43194702 -0.37594426 0.75560224 1.4416594e-38
0.4265095 -0.36522946 0.75492817 1.4416594e-38
0.41934711 -0.35130411 0.75457925 1.4416594e-38
0.42187926 -0.35622072 0.75419694 1.4416594e-38
0.41611737 -0.34501374 0.75490433 1.4416594e-38
0.40905005 -0.3318612 0.75519109 1.4416594e-38
0.41158301 -0.33654088 0.75495613 1.4416594e-38
0.40550259 -0.32509616 0.75504637 1.4416594e-38
0.39884567 -0.31245822 0.75594628 1.4416594e-38
0.40140378 -0.31726173 0.75469005 1.4416594e-38
0.39557567 -0.30432388 0.75542915 1.4416594e-38
0.39471611 -0.29494405 0.75494343 1.4416594e-38
0.40099758 -0.29062253 0.7506032 1.4416594e-38
0.39846292 -0.28933489 0.75788635 1.4416594e-38
0.40548059 -0.28570786 0.75435561 1.4416594e-38
0.41128823 -0.28110656 0.75424176 1.4416594e-38
0.41623598 -0.27806389 0.75480098 1.4416594e-38
0.42498171 -0.27442694 0.75480795 1.4416594e-38
0.43296883 -0.271227 0.75503415 1.4416594e-38
0.44554168 -0.27728316 0.75768203 1.4416594e-38
0.43786794 -0.26928478 0.75509113 1.4416594e-38
0.44156611 -0.26788759 0.75383484 1.4416594e-38
0.45266223 -0.41191584 0.76663876 1.4416594e-38
0.44784594 -0.40411648 0.76548225 1.4416594e-38
0.4510794 -0.4090369 0.76204216 1.4416594e-38
0.43932587 -0.39017481 0.76516503 1.4416594e-38
0.44253102 -0.39552131 0.76511157 1.4416594e-38
0.43593922 -0.38452134 0.7649979 1.4416594e-38
0.4292348 -0.37157178 0.76510537 1.4416594e-38
0.43162918 -0.3765201 0.76499826 1.4416594e-38
0.426056 -0.36501154 0.76526028 1.4416594e-38
0.41911086 -0.35164717 0.76516819 1.4416594e-38
0.42186546 -0.35688806 0.76512873 1.4416594e-38
0.41562846 -0.3449659 0.76480144 1.4416594e-38
0.4089807 -0.3324466 0.76503164 1.4416594e-38
0.41146466 -0.33714464 0.76498204 1.4416594e-38
0.40513849 -0.32502726 0.76511389 1.4416594e-38
0.39879286 -0.31223261 0.76570892 1.4416594e-38
0.40126771 -0.31753403 0.76544571 1.4416594e-38
0.3966721 -0.30516541 0.76495683 1.4416594e-38
0.39431816 -0.29397741 0.76481497 1.4416594e-38
0.39756289 -0.28863958 0.76567769 1.4416594e-38
0.40514186 -0.28412402 0.7648713 1.4416594e-38
0.41122073 -0.28060767 0.76484656 1.4416594e-38
0.4159252 -0.2781713 0.7648862 1.4416594e-38
0.42488518 -0.27417657 0.76527125 1.4416594e-38
0.43250966 -0.27101195 0.76456004 1.4416594e-38
0.43735379 -0.26897028 0.76575363 1.4416594e-38
0.44104153 -0.26759237 0.76439899 1.4416594e-38
0.45938444 -0.42340195 0.77532554 1.4416594e-38
0.4603194 -0.42518738 0.77849603 1.4416594e-38
0.44167364 -0.41363332 0.77855206 1.4416594e-38
0.45422241 -0.41512215 0.77560496 1.4416594e-38
0.44717175 -0.40379116 0.77569401 1.4416594e-38
0.4505505 -0.40892097 0.77185094 1.4416594e-38
0.43973994 -0.39089489 0.77400488 1.4416594e-38
0.44253361 -0.39588341 0.77466762 1.4416594e-38
0.43623701 -0.38484907 0.77496427 1.4416594e-38
0.42894331 -0.37147176 0.77499253 1.4416594e-38
0.43169701 -0.3766723 0.77510041 1.4416594e-38
0.42555621 -0.36486039 0.77509069 1.4416594e-38
0.41911942 -0.35252619 0.77530819 1.4416594e-38
0.42141867 -0.35692331 0.77530068 1.4416594e-38
0.41519716 -0.34498271 0.77488983 1.4416594e-38
0.40871653 -0.33244771 0.77481818 1.4416594e-38
0.4114522 -0.33777681 0.77506846 1.4416594e-38
0.40484077 -0.32491443 0.77513242 1.4416594e-38
0.39822099 -0.31246337 0.77424455 1.4416594e-38
0.40117216 -0.31777963 0.77527869 1.4416594e-38
0.3962698 -0.30483422 0.77441663 1.4416594e-38
0.3942357 -0.29352412 0.77488095 1.4416594e-38
0.39834285 -0.28883281 0.77498263 1.4416594e-38
0.40488598 -0.28450611 0.77500021 1.4416594e-38
0.4110074 -0.28064579 0.77546132 1.4416594e-38
0.41599607 -0.27817419 0.77517009 1.4416594e-38
0.42489579 -0.2742202 0.7753759 1.4416594e-38
0.43213779 -0.27101031 0.77517241 1.4416594e-38
0.43721503 -0.26876345 0.77550089 1.4416594e-38
0.44103071 -0.26715511 0.77515686 1.4416594e-38
0.4578782 -0.42182603 0.78398758 1.4416594e-38
0.4529008 -0.41398638 0.78545833 1.4416594e-38
0.44677144 -0.4039205 0.78551733 1.4416594e-38
0.45020366 -0.40919232 0.78234029 1.4416594e-38
0.43964323 -0.39140701 0.78598279 1.4416594e-38
0.44215187 -0.39577159 0.78423184 1.4416594e-38
0.43619651 -0.38510227 0.78438765 1.4416594e-38
0.42888245 -0.37187743 0.78473735 1.4416594e-38
0.43155617 -0.37700737 0.78641665 1.4416594e-38
0.42506379 -0.3646057 0.78500837 1.4416594e-38
0.41863227 -0.35219863 0.78528959 1.4416594e-38
0.42131126 -0.35736549 0.78528935 1.4416594e-38
0.41498953 -0.34511486 0.7851457 1.4416594e-38
0.40863654 -0.33273602 0.78467745 1.4416594e-38
0.4111008 -0.33752817 0.78466678 1.4416594e-38
0.40483114 -0.32537565 0.7853052 1.4416594e-38
0.39855278 -0.31324837 0.78532642 1.4416594e-38
0.40105224 -0.3179968 0.7841574 1.4416594e-38
0.39460966 -0.30501828 0.7852723 1.4416594e-38
0.39418569 -0.29335317 0.78545648 1.4416594e-38
0.39872986 -0.28900087 0.78498536 1.4416594e-38
0.40488178 -0.28459823 0.78514147 1.4416594e-38
0.41156772 -0.28067043 0.78607553 1.4416594e-38
0.41657481 -0.27855793 0.78469115 1.4416594e-38
0.42501 -0.27518651 0.78502142 1.4416594e-38
0.43376675 -0.27161232 0.78509933 1.4416594e-38
0.43869847 -0.26940852 0.78400701 1.4416594e-38
0.4415234 -0.26842147 0.78507632 1.4416594e-38
0.45852786 -0.42262179 0.79074156 1.4416594e-38
0.44979298 -0.41002071 0.79594523 1.4416594e-38
0.45259362 -0.41474599 0.7954095 1.4416594e-38
0.44669786 -0.40454671 0.79499179 1.4416594e-38
0.43914396 -0.39158282 0.79645127 1.4416594e-38
0.44213602 -0.39659017 0.7941336 1.4416594e-38
0.43546268 -0.38504955 0.79507697 1.4416594e-38
0.42797896 -0.37321845 0.79517639 1.4416594e-38
0.43123159 -0.37737015 0.79589951 1.4416594e-38
0.42504179 -0.36530948 0.79519027 1.4416594e-38
0.418428 -0.35258523 0.79544783 1.4416594e-38
0.42106733 -0.35754851 0.79458302 1.4416594e-38
0.41451383 -0.34501129 0.79494685 1.4416594e-38
0.40846461 -0.33335203 0.79494756 1.4416594e-38
0.41108623 -0.3384209 0.79495454 1.4416594e-38
0.40388507 -0.32440004 0.79521614 1.4416594e-38
0.39830756 -0.31350213 0.79539895 1.4416594e-38
0.40067253 -0.31801447 0.79453367 1.4416594e-38
0.39394322 -0.30502343 0.79452288 1.4416594e-38
0.39449778 -0.29446697 0.79529107 1.4416594e-38
0.39947701 -0.28958261 0.79379678 1.4416594e-38
0.40453684 -0.28528583 0.79516286 1.4416594e-38
0.41212332 -0.28079414 0.79487997 1.4416594e-38
0.41696444 -0.2788156 0.79469907 1.4416594e-38
0.42478457 -0.2754651 0.7948795 1.4416594e-38
0.43356943 -0.27170253 0.79346365 1.4416594e-38
0.4423382 -0.27109766 0.79458088 1.4416594e-38
0.43679374 -0.26813728 0.79591054 1.4416594e-38
0.44137564 -0.26872659 0.79121566 1.4416594e-38
0.45113578 -0.26912451 0.7975136 1.4416594e-38
0.45632467 -0.42178616 0.80747628 1.4416594e-38
0.44960225 -0.41020697 0.80471551 1.4416594e-38
0.45257667 -0.41529721 0.80500805 1.4416594e-38
0.44660488 -0.40501586 0.80492103 1.4416594e-38
0.43878198 -0.39153922 0.80610693 1.4416594e-38
0.44180459 -0.39667043 0.80455601 1.4416594e-38
0.43495327 -0.38480124 0.80483508 1.4416594e-38
0.4285298 -0.37293416 0.80556822 1.4416594e-38
0.43106779 -0.37782428 0.80529165 1.4416594e-38
0.44292867 -0.37962073 0.80984676 1.4416594e-38
0.41329995 -0.36042944 0.80971152 1.4416594e-38
0.42458147 -0.36523202 0.80492961 1.4416594e-38
0.43019718 -0.36962676 0.8059234 1.4416594e-38
0.41836023 -0.35342875 0.80564469 1.4416594e-38
0.42107502 -0.35844684 0.80470574 1.4416594e-38
0.41396743 -0.34510761 0.8049984 1.4416594e-38
0.40804499 -0.33379081 0.80533212 1.4416594e-38
0.41068926 -0.33875439 0.80346507 1.4416594e-38
0.40359989 -0.32500648 0.80477124 1.4416594e-38
0.39783847 -0.31400129 0.80531573 1.4416594e-38
0.40067831 -0.31899813 0.80321413 1.4416594e-38
0.39270678 -0.30404383 0.80545074 1.4416594e-38
0.39547768 -0.29526439 0.80442613 1.4416594e-38
0.40040159 -0.29044658 0.80577433 1.4416594e-38
0.39959085 -0.28998369 0.80053282 1.4416594e-38
0.40485495 -0.2854946 0.80481446 1.4416594e-38
0.41134694 -0.2807554 0.80499864 1.4416594e-38
0.4164046 -0.27786827 0.80540699 1.4416594e-38
0.42477122 -0.27264723 0.80617851 1.4416594e-38
0.43124267 -0.27010834 0.80943143 1.4416594e-38
0.42928076 -0.26958475 0.80474329 1.4416594e-38
0.43329915 -0.26871338 0.80592048 1.4416594e-38
0.45775208 -0.42263955 0.81521243 1.4416594e-38
0.46168527 -0.4242669 0.81744134 1.4416594e-38
0.44967282 -0.41064698 0.81300056 1.4416594e-38
0.45308498 -0.41636527 0.81586707 1.4416594e-38
0.4463793 -0.4051494 0.81508845 1.4416594e-38
0.43881217 -0.39198458 0.81520253 1.4416594e-38
0.44222385 -0.39663035 0.81503522 1.4416594e-38
0.434688 -0.38478896 0.81506479 1.4416594e-38
0.42831317 -0.37310943 0.81552368 1.4416594e-38
0.43085817 -0.37807819 0.81517476 1.4416594e-38
0.42429289 -0.36488801 0.81488973 1.4416594e-38
0.41806859 -0.35314366 0.81503546 1.4416594e-38
0.42076251 -0.35820583 0.81482965 1.4416594e-38
0.41362873 -0.34493303 0.81510848 1.4416594e-38
0.42379701 -0.34136584 0.81770188 1.4416594e-38
0.40789858 -0.33427042 0.81540602 1.4416594e-38
0.41042274 -0.3389937 0.81443548 1.4416594e-38
0.40302879 -0.3249498 0.81535292 1.4416594e-38
0.39785257 -0.31422311 0.81575078 1.4416594e-38
0.40015399 -0.3193658 0.81567085 1.4416594e-38
0.39392188 -0.30479109 0.81521839 1.4416594e-38
0.38560426 -0.29002711 0.8166939 1.4416594e-38
0.39329588 -0.29504332 0.81522524 1.4416594e-38
0.3982251 -0.28864366 0.81690031 1.4416594e-38
0.40495056 -0.28446367 0.81515163 1.4416594e-38
0.41125038 -0.28071067 0.81518835 1.4416594e-38
0.41609377 -0.27786788 0.81496155 1.4416594e-38
0.42496574 -0.2735503 0.81476271 1.4416594e-38
0.43250966 -0.27080333 0.81444049 1.4416594e-38
0.43684295 -0.26899841 0.81391388 1.4416594e-38
0.44957951 -0.41048703 0.82238567 1.4416594e-38
0.45377141 -0.41462097 0.82238692 1.4416594e-38
0.44638786 -0.40451995 0.82608008 1.4416594e-38
0.43899453 -0.3920536 0.82534528 1.4416594e-38
0.44185913 -0.396505 0.82657629 1.4416594e-38
0.43526578 -0.38500041 0.82616192 1.4416594e-38
0.44753695 -0.38655373 0.82529122 1.4416594e-38
0.42796907 -0.37363824 0.82563341 1.4416594e-38
0.43133879 -0.37818339 0.82640719 1.4416594e-38
0.4242731 -0.36498818 0.82522672 1.4416594e-38
0.4185032 -0.35307279 0.82484442 1.4416594e-38
0.4210228 -0.35822302 0.8250131 1.4416594e-38
0.41412559 -0.34495625 0.82493043 1.4416594e-38
0.40776703 -0.33342862 0.82480454 1.4416594e-38
0.41068479 -0.33858028 0.82560813 1.4416594e-38
0.40336904 -0.32447425 0.82509506 1.4416594e-38
0.39890245 -0.31272668 0.82418281 1.4416594e-38
0.40095302 -0.31762624 0.8255685 1.4416594e-38
0.45532355 -0.31036764 0.82620579 1.4416594e-38
0.39612159 -0.30488795 0.82506543 1.4416594e-38
0.39385107 -0.29406887 0.82539111 1.4416594e-38
0.39788213 -0.28882822 0.82522023 1.4416594e-38
0.40518793 -0.28455147 0.82488161 1.4416594e-38
0.41151726 -0.28085074 0.82507998 1.4416594e-38
0.41640902 -0.27788642 0.82518029 1.4416594e-38
0.42460006 -0.27300236 0.82544565 1.4416594e-38
0.43105459 -0.27043658 0.82111639 1.4416594e-38
0.42957571 -0.26977023 0.82819283 1.4416594e-38
0.43292418 -0.26856059 0.82550377 1.4416594e-38
0.4640699 -0.42313603 0.83747786 1.4416594e-38
0.45622233 -0.41464171 0.83511293 1.4416594e-38
0.46276742 -0.41833845 0.83924866 1.4416594e-38
0.44832882 -0.40274912 0.83358526 1.4416594e-38
0.45191747 -0.40689036 0.83598572 1.4416594e-38
0.43955743 -0.3901571 0.83023787 1.4416594e-38
0.44464734 -0.39502627 0.8351891 1.4416594e-38
0.4376227 -0.38376069 0.83409047 1.4416594e-38
0.44139659 -0.38769916 0.83720189 1.4416594e-38
0.42906857 -0.37235153 0.83227915 1.4416594e-38
0.4332487 -0.37553459 0.83566844 1.4416594e-38
0.49786764 -0.37786281 0.83952868 1.4416594e-38
0.42684013 -0.36436364 0.83564407 1.4416594e-38
0.43121228 -0.36617574 0.83918345 1.4416594e-38
0.41892287 -0.35237247 0.8334049 1.4416594e-38
0.42484742 -0.35504058 0.83728254 1.4416594e-38
0.43057305 -0.35839352 0.83989733 1.4416594e-38
0.4869864 -0.35518894 0.83612567 1.4416594e-38
0.41649011 -0.3443495 0.83512634 1.4416594e-38
0.42329916 -0.34530237 0.83852202 1.4416594e-38
0.45481578 -0.34157455 0.83791184 1.4416594e-38
0.47822878 -0.34241095 0.83840179 1.4416594e-38
0.48082882 -0.34212363 0.83337718 1.4416594e-38
0.40847418 -0.33264193 0.83377779 1.4416594e-38
0.41499233 -0.33496302 0.83658785 1.4416594e-38
0.42198831 -0.3360489 0.83912987 1.4416594e-38
0.47424188 -0.33485568 0.83651304 1.4416594e-38
0.40613392 -0.32468227 0.8350367 1.4416594e-38
0.4147996 -0.32506898 0.83808279 1.4416594e-38
0.42072952 -0.32718584 0.83963883 1.4416594e-38
0.46596694 -0.32334968 0.83848363 1.4416594e-38
0.47142142 -0.32981181 0.8365646 1.4416594e-38
0.39959985 -0.31103152 0.83310986 1.4416594e-38
0.40435112 -0.31510973 0.83693153 1.4416594e-38
0.41342101 -0.31678069 0.83924079 1.4416594e-38
0.45745164 -0.31428057 0.83886063 1.4416594e-38
0.46214509 -0.31666324 0.83782941 1.4416594e-38
0.3979001 -0.30406076 0.83596951 1.4416594e-38
0.40375835 -0.30448243 0.83954936 1.4416594e-38
0.41193587 -0.30034938 0.83989012 1.4416594e-38
0.45667103 -0.30563164 0.83709168 1.4416594e-38
0.39760309 -0.29540378 0.8339799 1.4416594e-38
0.40457171 -0.29468939 0.8381083 1.4416594e-38
0.41316903 -0.29459855 0.83930337 1.4416594e-38
0.45321578 -0.29186669 0.83790773 1.4416594e-38
0.39903274 -0.28911269 0.83175153 1.4416594e-38
0.40558299 -0.28603578 0.83495468 1.4416594e-38
0.41434625 -0.28398705 0.83787924 1.4416594e-38
0.43998086 -0.28142375 0.83966583 1.4416594e-38
0.44319361 -0.28397444 0.83918989 1.4416594e-38
0.41702133 -0.27844834 0.83379799 1.4416594e-38
0.42517108 -0.27556375 0.83536744 1.4416594e-38
0.43463877 -0.27411726 0.83680928 1.4416594e-38
0.4409236 -0.27759972 0.83797204 1.4416594e-38
0.43397778 -0.26919326 0.83147109 1.4416594e-38
0.46907052 -0.42065412 0.84034717 1.4416594e-38
0.45860833 -0.41144532 0.84054643 1.4416594e-38
0.4657082 -0.41410387 0.84168315 1.4416594e-38
0.47366652 -0.4134199 0.84352565 1.4416594e-38
0.45595485 -0.40413317 0.84167528 1.4416594e-38
0.46482405 -0.4051123 0.84303504 1.4416594e-38
0.47462317 -0.40510696 0.84453845 1.4416594e-38
0.48332438 -0.40349713 0.84607244 1.4416594e-38
0.44769764 -0.39368296 0.84167349 1.4416594e-38
0.45489147 -0.39491126 0.84273118 1.4416594e-38
0.46529964 -0.39512137 0.84394044 1.4416594e-38
0.47525695 -0.39490756 0.84551233 1.4416594e-38
0.48484647 -0.39507449 0.84627753 1.4416594e-38
0.49403122 -0.39389277 0.84487396 1.4416594e-38
0.43930435 -0.38049394 0.84151071 1.4416594e-38
0.44544682 -0.38459039 0.84267229 1.4416594e-38
0.45500058 -0.38465688 0.84383559 1.4416594e-38
0.46491531 -0.38529277 0.84479803 1.4416594e-38
0.4749549 -0.3851836 0.84609866 1.4416594e-38
0.48517951 -0.38478976 0.84572214 1.4416594e-38
0.49500287 -0.38547656 0.84419096 1.4416594e-38
0.5016259 -0.389175 0.84317589 1.4416594e-38
0.43693978 -0.37410551 0.84168881 1.4416594e-38
0.44456744 -0.37499738 0.84358561 1.4416594e-38
0.45486328 -0.37491301 0.84468389 1.4416594e-38
0.46517798 -0.37481216 0.84572721 1.4416594e-38
0.47482127 -0.37525141 0.84601861 1.4416594e-38
0.48459107 -0.37523133 0.84519857 1.4416594e-38
0.49245778 -0.37601 0.84410149 1.4416594e-38
0.43561473 -0.36486626 0.84193933 1.4416594e-38
0.44500074 -0.36488816 0.84406227 1.4416594e-38
0.45504695 -0.36507267 0.84536648 1.4416594e-38
0.46447301 -0.36508384 0.84595931 1.4416594e-38
0.47473767 -0.36496684 0.84545851 1.4416594e-38
0.48430777 -0.36532921 0.84459943 1.4416594e-38
0.49032491 -0.3691889 0.84409279 1.4416594e-38
0.43459675 -0.35477188 0.84223002 1.4416594e-38
0.44509199 -0.35504994 0.84427804 1.4416594e-38
0.4552213 -0.35504493 0.8452968 1.4416594e-38
0.46482536 -0.35494971 0.84545922 1.4416594e-38
0.47509146 -0.35523361 0.84486169 1.4416594e-38
0.48238403 -0.35653561 0.84374255 1.4416594e-38
0.42813393 -0.34434459 0.84078234 1.4416594e-38
0.43522331 -0.3449679 0.8428973 1.4416594e-38
0.44519198 -0.34514922 0.84434265 1.4416594e-38
0.45497164 -0.34477183 0.84495044 1.4416594e-38
0.46537447 -0.34497708 0.84486139 1.4416594e-38
0.47415978 -0.34599161 0.84394526 1.4416594e-38
0.48011345 -0.34911376 0.84209704 1.4416594e-38
0.42637995 -0.33459884 0.8412621 1.4416594e-38
0.43504626 -0.33502638 0.84309149 1.4416594e-38
0.44495833 -0.33505556 0.84421921 1.4416594e-38
0.45495731 -0.3350668 0.84460896 1.4416594e-38
0.46514693 -0.33544007 0.844136 1.4416594e-38
0.47320628 -0.33794117 0.84322947 1.4416594e-38
0.48370668 -0.33492222 0.84659261 1.4416594e-38
0.41986567 -0.3212392 0.8401283 1.4416594e-38
0.425648 -0.32495347 0.84182262 1.4416594e-38
0.43558311 -0.32500833 0.84330958 1.4416594e-38
0.44505036 -0.32502812 0.84410512 1.4416594e-38
0.45473859 -0.32507536 0.84404182 1.4416594e-38
0.463222 -0.32646087 0.84198576 1.4416594e-38
0.41674656 -0.31365994 0.8406868 1.4416594e-38
0.42513108 -0.31508055 0.84238392 1.4416594e-38
0.43531564 -0.3151578 0.84332949 1.4416594e-38
0.44501582 -0.31466851 0.84363413 1.4416594e-38
0.45375964 -0.31563327 0.84222454 1.4416594e-38
0.4065651 -0.30521482 0.84035724 1.4416594e-38
0.41505361 -0.30512598 0.84105158 1.4416594e-38
0.42453894 -0.30474007 0.84249091 1.4416594e-38
0.43513954 -0.30531573 0.84244877 1.4416594e-38
0.44516829 -0.30508915 0.84223944 1.4416594e-38
0.45189026 -0.30597627 0.84156781 1.4416594e-38
0.41804916 -0.29555899 0.84049529 1.4416594e-38
0.42496783 -0.29498535 0.84225953 1.4416594e-38
0.43468904 -0.29479581 0.84340465 1.4416594e-38
0.44441077 -0.29533789 0.84191436 1.4416594e-38
0.41912442 -0.28628752 0.84033853 1.4416594e-38
0.425203 -0.28498489 0.84143466 1.4416594e-38
0.43445987 -0.28491953 0.84228855 1.4416594e-38
0.44185811 -0.28729108 0.84087545 1.4416594e-38
0.42593932 -0.27976823 0.84001791 1.4416594e-38
0.43392363 -0.27948967 0.84018165 1.4416594e-38
0.45954573 -0.35653806 0.85555565 1.4416594e-38
0.45526248 -0.30561933 0.85306102 1.4416594e-38
0.63587433 -0.30662647 0.62699831 8.9636747e-39
0.62714636 -0.29550704 0.62272644 8.9636747e-39
0.61632866 -0.28390196 0.62693566 8.9636747e-39
0.62093508 -0.28998536 0.62904125 8.9636747e-39
0.60750169 -0.27294156 0.62706721 8.9636747e-39
0.61276507 -0.27900532 0.62551147 8.9636747e-39
0.59899473 -0.26189953 0.62543786 8.9636747e-39
0.60309654 -0.26705176 0.62678337 8.9636747e-39
0.5937618 -0.2548486 0.62632126 8.9636747e-39
0.58598286 -0.24477847 0.62649536 8.9636747e-39
0.56815994 -0.23795871 0.6282379 8.9636747e-39
0.57671064 -0.23333308 0.62664473 8.9636747e-39
0.5810504 -0.23850316 0.62519115 8.9636747e-39
0.5675832 -0.2223122 0.62856245 8.9636747e-39
0.57205987 -0.22709654 0.62548429 8.9636747e-39
0.55731344 -0.21223201 0.62593347 8.9636747e-39
0.56230396 -0.21552952 0.62728584 8.9636747e-39
0.55406207 -0.20482282 0.62537175 8.9636747e-39
0.54666334 -0.19442408 0.62485296 8.9636747e-39
0.55010968 -0.19938068 0.62729597 8.9636747e-39
0.539437 -0.18130824 0.6236347 8.9636747e-39
0.54204392 -0.18629859 0.62532926 8.9636747e-39
0.53627884 -0.17471054 0.62542719 8.9636747e-39
0.53732622 -0.16850922 0.62378025 8.9636747e-39
0.54496276 -0.16418503 0.62473732 8.9636747e-39
0.55184269 -0.16120888 0.62695146 8.9636747e-39
0.56610227 -0.16147679 0.62533647 8.9636747e-39
0.54593593 -0.15788767 0.62122172 8.9636747e-39
0.55583972 -0.15731816 0.6236881 8.9636747e-39
0.56379396 -0.15433124 0.62547147 8.9636747e-39
0.57007325 -0.15090495 0.62886953 8.9636747e-39
0.62883413 -0.30110985 0.63638759 8.9636747e-39
0.63192505 -0.30377179 0.63685381 8.9636747e-39
0.62469816 -0.29513949 0.63515794 8.9636747e-39
0.63701606 -0.29662541 0.63500804 8.9636747e-39
0.61746979 -0.28377742 0.63460261 8.9636747e-39
0.62097067 -0.28891885 0.63580924 8.9636747e-39
0.60823292 -0.27197164 0.63357544 8.9636747e-39
0.61231047 -0.27660593 0.63534892 8.9636747e-39
0.59912711 -0.26140153 0.63050091 8.9636747e-39
0.6036554 -0.26557946 0.63535357 8.9636747e-39
0.59557414 -0.25543892 0.63505912 8.9636747e-39
0.58689517 -0.2443298 0.63509446 8.9636747e-39
0.59086233 -0.24921635 0.63567048 8.9636747e-39
0.57736677 -0.23326798 0.63484329 8.9636747e-39
0.58161521 -0.23805761 0.63544685 8.9636747e-39
0.56780487 -0.22204877 0.63546145 8.9636747e-39
0.57206416 -0.22711587 0.63444114 8.9636747e-39
0.55896348 -0.2109192 0.63435113 8.9636747e-39
0.56309539 -0.21615322 0.6348905 8.9636747e-39
0.55444092 -0.20480745 0.63532549 8.9636747e-39
0.5476203 -0.19439726 0.634938 8.9636747e-39
0.55073541 -0.19881029 0.63792223 8.9636747e-39
0.53933632 -0.1804937 0.6314522 8.9636747e-39
0.54218656 -0.18527615 0.63513947 8.9636747e-39
0.53724223 -0.17457262 0.63526696 8.9636747e-39
0.54010808 -0.17930181 0.63999945 8.9636747e-39
0.53823167 -0.16884245 0.635786 8.9636747e-39
0.54487878 -0.1653318 0.63534594 8.9636747e-39
0.55295879 -0.16137438 0.634381 8.9636747e-39
0.5579775 -0.15878737 0.63433212 8.9636747e-39
0.56529802 -0.15458034 0.63496137 8.9636747e-39
0.57170802 -0.15093814 0.63683069 8.9636747e-39
0.62936634 -0.30091405 0.64717591 8.9636747e-39
0.63187015 -0.30444705 0.64952588 8.9636747e-39
0.62548763 -0.29448834 0.64514101 8.9636747e-39
0.61826766 -0.28247386 0.64451313 8.9636747e-39
0.62141466 -0.28729427 0.64550745 8.9636747e-39
0.6091646 -0.27057675 0.64228272 8.9636747e-39
0.61379302 -0.27586505 0.64489436 8.9636747e-39
0.60498315 -0.26520076 0.64513236 8.9636747e-39
0.59616143 -0.25421295 0.64450341 8.9636747e-39
0.60024303 -0.25915799 0.64669538 8.9636747e-39
0.58758235 -0.24321923 0.64469725 8.9636747e-39
0.5916329 -0.24826287 0.64550543 8.9636747e-39
0.57818019 -0.23211993 0.64536703 8.9636747e-39
0.58252478 -0.23700473 0.64537501 8.9636747e-39
0.56889766 -0.22221892 0.6441043 8.9636747e-39
0.57325423 -0.22679923 0.64498591 8.9636747e-39
0.55932254 -0.21038914 0.64476252 8.9636747e-39
0.56352377 -0.21559319 0.64512205 8.9636747e-39
0.55545372 -0.20479558 0.64460343 8.9636747e-39
0.56291735 -0.20985101 0.64549673 8.9636747e-39
0.54775172 -0.19326843 0.64522058 8.9636747e-39
0.55116689 -0.19837132 0.64422649 8.9636747e-39
0.54312599 -0.18495557 0.64498109 8.9636747e-39
0.53818786 -0.17392984 0.64474094 8.9636747e-39
0.54051417 -0.17900789 0.6465041 8.9636747e-39
0.53801179 -0.16898611 0.64465201 8.9636747e-39
0.54462397 -0.1656931 0.64416081 8.9636747e-39
0.55324811 -0.16136906 0.64355236 8.9636747e-39
0.55865538 -0.15869637 0.64269197 8.9636747e-39
0.56465393 -0.15574382 0.64301515 8.9636747e-39
0.57278788 -0.15155505 0.64219803 8.9636747e-39
0.61929488 -0.3046087 0.6539247 8.9636747e-39
0.62218308 -0.30359337 0.65528506 8.9636747e-39
0.63516718 -0.30348587 0.6530515 8.9636747e-39
0.64070004 -0.30592746 0.65637898 8.9636747e-39
0.62771708 -0.29432726 0.65157861 8.9636747e-39
0.63218594 -0.29796642 0.65342438 8.9636747e-39
0.61930162 -0.28171897 0.65522575 8.9636747e-39
0.62256408 -0.28654224 0.65324348 8.9636747e-39
0.61435246 -0.27481711 0.65521955 8.9636747e-39
0.60552996 -0.26410729 0.65493989 8.9636747e-39
0.61030018 -0.26942298 0.6568684 8.9636747e-39
0.59717703 -0.25359565 0.6550948 8.9636747e-39
0.60092986 -0.2581304 0.65647584 8.9636747e-39
0.58823258 -0.24251427 0.65458632 8.9636747e-39
0.59193456 -0.247078 0.6551829 8.9636747e-39
0.5787704 -0.2310206 0.65396416 8.9636747e-39
0.58336705 -0.23643693 0.65523994 8.9636747e-39
0.56848222 -0.22022569 0.65003693 8.9636747e-39
0.57388747 -0.22515832 0.65489638 8.9636747e-39
0.55973792 -0.21019593 0.65094113 8.9636747e-39
0.56517196 -0.21527633 0.65573275 8.9636747e-39
0.54529202 -0.20160532 0.65302378 8.9636747e-39
0.55636054 -0.20516868 0.65503955 8.9636747e-39
0.54811901 -0.19313499 0.65572351 8.9636747e-39
0.55118573 -0.19805013 0.65575427 8.9636747e-39
0.54399604 -0.18536709 0.65465802 8.9636747e-39
0.53829598 -0.17368369 0.6551491 8.9636747e-39
0.54076582 -0.17885323 0.65396261 8.9636747e-39
0.53814858 -0.16740181 0.65646821 8.9636747e-39
0.54717159 -0.1575678 0.65853631 8.9636747e-39
0.55721211 -0.15303093 0.65831351 8.9636747e-39
0.56530195 -0.15146071 0.65334111 8.9636747e-39
0.56737083 -0.14881137 0.65815175 8.9636747e-39
0.57235199 -0.14819555 0.65562582 8.9636747e-39
0.63561523 -0.30262747 0.66642153 8.9636747e-39
0.64018691 -0.30405682 0.66456485 8.9636747e-39
0.61616004 -0.29463309 0.66745538 8.9636747e-39
0.62641799 -0.29288048 0.66662544 8.9636747e-39
0.63153815 -0.29828411 0.66697383 8.9636747e-39
0.61923599 -0.28126568 0.6644817 8.9636747e-39
0.62205142 -0.28622526 0.66561824 8.9636747e-39
0.59829462 -0.27245235 0.66097194 8.9636747e-39
0.61590374 -0.27535561 0.66530031 8.9636747e-39
0.6071589 -0.2640411 0.66480285 8.9636747e-39
0.61120683 -0.26891258 0.66493571 8.9636747e-39
0.59752339 -0.25218141 0.66503894 8.9636747e-39
0.60190743 -0.25756297 0.6651808 8.9636747e-39
0.58856744 -0.24111581 0.66394109 8.9636747e-39
0.59271038 -0.24611333 0.66513723 8.9636747e-39
0.57911384 -0.23032813 0.6601404 8.9636747e-39
0.58399719 -0.2352829 0.6651274 8.9636747e-39
0.57559013 -0.2249756 0.66499352 8.9636747e-39
0.56656796 -0.2144171 0.66515565 8.9636747e-39
0.57132173 -0.2192167 0.66747957 8.9636747e-39
0.55694294 -0.20388219 0.66494286 8.9636747e-39
0.56147164 -0.20869565 0.66585821 8.9636747e-39
0.54864281 -0.19211751 0.66447145 8.9636747e-39
0.55198914 -0.19732934 0.66481704 8.9636747e-39
0.54418874 -0.18477644 0.66489565 8.9636747e-39
0.53859097 -0.17324771 0.66447818 8.9636747e-39
0.54102254 -0.17725353 0.66708446 8.9636747e-39
0.53846127 -0.16546822 0.66485268 8.9636747e-39
0.54135221 -0.16094597 0.66510308 8.9636747e-39
0.54605073 -0.15779072 0.66567463 8.9636747e-39
0.55445081 -0.1529538 0.66592908 8.9636747e-39
0.56512046 -0.15020794 0.66677266 8.9636747e-39
0.56519312 -0.14945233 0.66520202 8.9636747e-39
0.5746184 -0.14849301 0.66522461 8.9636747e-39
0.58079118 -0.14893307 0.66847849 8.9636747e-39
0.63673097 -0.30284455 0.67519385 8.9636747e-39
0.62711334 -0.29312485 0.67550933 8.9636747e-39
0.63169199 -0.29803187 0.67452461 8.9636747e-39
0.61935604 -0.28028697 0.67467177 8.9636747e-39
0.62220854 -0.28525221 0.67486179 8.9636747e-39
0.63066447 -0.28171563 0.67992163 8.9636747e-39
0.61627328 -0.27476227 0.67529166 8.9636747e-39
0.60759419 -0.26308975 0.675201 8.9636747e-39
0.61207467 -0.26834098 0.67553139 8.9636747e-39
0.59887379 -0.25226441 0.67460907 8.9636747e-39
0.60273731 -0.25694144 0.67535436 8.9636747e-39
0.58892894 -0.24006809 0.67129797 8.9636747e-39
0.59339142 -0.24525145 0.6748423 8.9636747e-39
0.58525336 -0.23465058 0.674936 8.9636747e-39
0.57710576 -0.22426456 0.67468697 8.9636747e-39
0.58135867 -0.22924009 0.67680669 8.9636747e-39
0.5668118 -0.21236315 0.67442966 8.9636747e-39
0.57186842 -0.21761595 0.67596471 8.9636747e-39
0.55785042 -0.2024242 0.67565036 8.9636747e-39
0.562406 -0.20758881 0.67460746 8.9636747e-39
0.54893321 -0.19205326 0.67523891 8.9636747e-39
0.55276477 -0.19685553 0.6753484 8.9636747e-39
0.54583681 -0.18520693 0.67500776 8.9636747e-39
0.53984904 -0.17051569 0.67626643 8.9636747e-39
0.5419783 -0.17570411 0.67505759 8.9636747e-39
0.53846723 -0.16553283 0.67501134 8.9636747e-39
0.54123259 -0.16097547 0.6741485 8.9636747e-39
0.54633319 -0.15764634 0.67554355 8.9636747e-39
0.55489266 -0.15320107 0.67501509 8.9636747e-39
0.56131047 -0.15052132 0.67645222 8.9636747e-39
0.5653643 -0.14880125 0.67768413 8.9636747e-39
0.57724488 -0.14982575 0.67035043 8.9636747e-39
0.63667661 -0.30067191 0.68162805 8.9636747e-39
0.6408931 -0.30335721 0.68197966 8.9636747e-39
0.62672657 -0.29246882 0.68527418 8.9636747e-39
0.63215446 -0.29723725 0.68418074 8.9636747e-39
0.61984307 -0.28075808 0.68430197 8.9636747e-39
0.62275964 -0.28584775 0.68544477 8.9636747e-39
0.61691403 -0.27506199 0.68548012 8.9636747e-39
0.60806656 -0.26215598 0.68623215 8.9636747e-39
0.61194718 -0.26718539 0.68459004 8.9636747e-39
0.59920949 -0.25114056 0.68441057 8.9636747e-39
0.60315549 -0.2560524 0.68479073 8.9636747e-39
0.59444588 -0.24505794 0.68504322 8.9636747e-39
0.58675504 -0.23501873 0.68500268 8.9636747e-39
0.57787561 -0.22301611 0.68443215 8.9636747e-39
0.58179319 -0.22834603 0.68555182 8.9636747e-39
0.56815523 -0.21166301 0.68400174 8.9636747e-39
0.5727061 -0.21657848 0.68530911 8.9636747e-39
0.54991037 -0.20074683 0.68292105 8.9636747e-39
0.55887836 -0.20148112 0.68523318 8.9636747e-39
0.56337744 -0.20636015 0.68497688 8.9636747e-39
0.54966307 -0.19113104 0.68256807 8.9636747e-39
0.55360359 -0.19524793 0.68549436 8.9636747e-39
0.54618186 -0.18506373 0.68617469 8.9636747e-39
0.5390138 -0.17288674 0.68667758 8.9636747e-39
0.54134828 -0.17677465 0.68800026 8.9636747e-39
0.53803849 -0.16522409 0.68535221 8.9636747e-39
0.54090536 -0.16055618 0.68538392 8.9636747e-39
0.54526889 -0.15755919 0.68606108 8.9636747e-39
0.55500746 -0.1525099 0.68436217 8.9636747e-39
0.55965185 -0.14969096 0.68877649 8.9636747e-39
0.56554389 -0.14864026 0.68511999 8.9636747e-39
0.57391751 -0.14701022 0.68478161 8.9636747e-39
0.56161129 -0.1381533 0.6800862 8.9636747e-39
0.64072412 -0.30365348 0.69472277 8.9636747e-39
0.62696034 -0.29215756 0.69508153 8.9636747e-39
0.63262641 -0.29732063 0.6961813 8.9636747e-39
0.62358356 -0.28504404 0.69509089 8.9636747e-39
0.61750019 -0.27480298 0.6944347 8.9636747e-39
0.62054366 -0.27965951 0.69727701 8.9636747e-39
0.60888094 -0.2618098 0.69530946 8.9636747e-39
0.61252981 -0.2668055 0.6952033 8.9636747e-39
0.60361928 -0.25483686 0.69489658 8.9636747e-39
0.59576464 -0.24486147 0.69551736 8.9636747e-39
0.58715248 -0.23395097 0.6947251 8.9636747e-39
0.59117281 -0.23904409 0.69522476 8.9636747e-39
0.57825142 -0.22260186 0.69454765 8.9636747e-39
0.58199519 -0.2272816 0.69525194 8.9636747e-39
0.56908756 -0.2108973 0.69516623 8.9636747e-39
0.57324463 -0.21617389 0.69523191 8.9636747e-39
0.56413001 -0.2050593 0.69491029 8.9636747e-39
0.55495924 -0.19486929 0.69483644 8.9636747e-39
0.5473848 -0.1845627 0.69495231 8.9636747e-39
0.55068082 -0.1895128 0.69642115 8.9636747e-39
0.53984034 -0.17090113 0.69411623 8.9636747e-39
0.54284561 -0.17590058 0.69325966 8.9636747e-39
0.53906411 -0.16550028 0.69435704 8.9636747e-39
0.54109931 -0.16302444 0.69401562 8.9636747e-39
0.54612428 -0.1568802 0.69449133 8.9636747e-39
0.55347085 -0.15171362 0.69474357 8.9636747e-39
0.55906361 -0.14989477 0.69829589 8.9636747e-39
0.56510407 -0.14823313 0.69524688 8.9636747e-39
0.57391959 -0.14615111 0.69484252 8.9636747e-39
0.62604576 -0.3054494 0.70635611 8.9636747e-39
0.63705981 -0.30085877 0.70243442 8.9636747e-39
0.62846911 -0.29138047 0.70373559 8.9636747e-39
0.63341242 -0.29645675 0.70500714 8.9636747e-39
0.62440634 -0.28510606 0.70528185 8.9636747e-39
0.61760384 -0.27394342 0.70489115 8.9636747e-39
0.62063241 -0.27901581 0.70456851 8.9636747e-39
0.60948372 -0.26086128 0.70363069 8.9636747e-39
0.61266881 -0.26563001 0.7052325 8.9636747e-39
0.60523009 -0.25491196 0.70513415 8.9636747e-39
0.59665656 -0.24376434 0.705006 8.9636747e-39
0.60052896 -0.24899305 0.70406091 8.9636747e-39
0.5880264 -0.23306055 0.70460516 8.9636747e-39
0.59221357 -0.23808743 0.7051273 8.9636747e-39
0.57830143 -0.22128378 0.70399213 8.9636747e-39
0.58254188 -0.22623904 0.70517755 8.9636747e-39
0.59245569 -0.22654878 0.70076632 8.9636747e-39
0.56973273 -0.21065667 0.70368671 8.9636747e-39
0.57389742 -0.21554112 0.70546997 8.9636747e-39
0.56551528 -0.20504092 0.70525557 8.9636747e-39
0.55650222 -0.1941025 0.70459402 8.9636747e-39
0.56089854 -0.19913881 0.70590717 8.9636747e-39
0.54815376 -0.18268585 0.70407194 8.9636747e-39
0.55190355 -0.18693165 0.70618802 8.9636747e-39
0.53938329 -0.17111368 0.70221442 8.9636747e-39
0.5438965 -0.17530087 0.70567733 8.9636747e-39
0.53953063 -0.16713563 0.70316565 8.9636747e-39
0.54081261 -0.16388844 0.70572978 8.9636747e-39
0.54459798 -0.15612863 0.70537257 8.9636747e-39
0.55519134 -0.15143082 0.70496106 8.9636747e-39
0.56532681 -0.14855035 0.70415223 8.9636747e-39
0.57479888 -0.1459915 0.70445764 8.9636747e-39
0.58053488 -0.14521818 0.70909536 8.9636747e-39
0.63803083 -0.30038124 0.7123729 8.9636747e-39
0.62882173 -0.29028261 0.71019393 8.9636747e-39
0.63395035 -0.29514796 0.71490991 8.9636747e-39
0.62583327 -0.28485611 0.7148813 8.9636747e-39
0.61842608 -0.27340823 0.71432263 8.9636747e-39
0.6215325 -0.27816877 0.71573567 8.9636747e-39
0.61345756 -0.26518011 0.71510893 8.9636747e-39
0.60653269 -0.25502482 0.71498084 8.9636747e-39
0.61003333 -0.25985646 0.71639639 8.9636747e-39
0.59736675 -0.24281578 0.71500105 8.9636747e-39
0.60151786 -0.24807262 0.71470559 8.9636747e-39
0.58862299 -0.23194344 0.71472138 8.9636747e-39
0.59256893 -0.23680896 0.71512097 8.9636747e-39
0.57890308 -0.22036517 0.71224612 8.9636747e-39
0.58328611 -0.22525696 0.71531391 8.9636747e-39
0.57484502 -0.21491715 0.71492338 8.9636747e-39
0.5667299 -0.20485654 0.71514416 8.9636747e-39
0.57132703 -0.20976275 0.7188158 8.9636747e-39
0.55716443 -0.19332998 0.71486282 8.9636747e-39
0.56140286 -0.19840556 0.71505046 8.9636747e-39
0.54921079 -0.18208362 0.71523017 8.9636747e-39
0.55233324 -0.18665825 0.71517748 8.9636747e-39
0.54625827 -0.17464288 0.71282029 8.9636747e-39
0.55050963 -0.17092521 0.71935976 8.9636747e-39
0.54226148 -0.16433574 0.71449941 8.9636747e-39
0.5463869 -0.15620959 0.71402818 8.9636747e-39
0.55182058 -0.15191449 0.71639329 8.9636747e-39
