# .PCD v0.7 - Point Cloud Data file format
VERSION 0.7
FIELDS x y z rgb
SIZE 4 4 4 4
TYPE F F F F
COUNT 1 1 1 1
WIDTH 1007
HEIGHT 1
VIEWPOINT 0 0 0 1 0 0 0
POINTS 1007
DATA ascii
0.62842244 0.22832844 0.62606913 7.3760077e-39
0.63369852 0.22383589 0.62507612 9.0362521e-39
0.42813015 0.23234689 0.6254189 7.0064825e-39
0.43104109 0.23663044 0.62761098 6.3614873e-39
0.61942142 0.23899312 0.62726188 6.3618558e-39
0.62334025 0.23441233 0.62468153 6.5462485e-39
0.64346659 0.2301946 0.62108541 1.0786889e-38
0.38481784 0.24414462 0.62035674 1.0694693e-38
0.43349105 0.24007182 0.62902987 7.5596661e-39
0.61518621 0.24496016 0.62522459 6.2696616e-39
0.60641795 0.25607511 0.62553471 4.3414595e-39
0.61062658 0.25099111 0.62380219 6.9150296e-39
0.38097373 0.26351798 0.62111914 1.0694693e-38
0.4378745 0.26754504 0.62033361 1.0694693e-38
0.57957494 0.26085019 0.62184894 3.7865579e-39
0.59755915 0.266956 0.62543714 2.5940557e-39
0.60166585 0.26201469 0.62447858 2.1341551e-39
0.58933932 0.27907187 0.62474597 2.1341551e-39
0.5929144 0.27401516 0.625269 2.1341551e-39
0.43216822 0.28100607 0.62093312 7.2834323e-39
0.58495718 0.28492171 0.62523705 2.1341551e-39
0.57646662 0.29551458 0.62520653 2.1341551e-39
0.58050317 0.29040977 0.62591755 2.1341551e-39
0.56774569 0.30690423 0.62602717 2.1341551e-39
0.571486 0.30211434 0.62448579 2.1341551e-39
0.5632636 0.31464082 0.62605017 2.1341551e-39
0.55560338 0.3273761 0.62267119 1.7560792e-39
0.56649745 0.32536662 0.62310112 1.8475602e-39
0.5687198 0.33010232 0.62793881 2.1237813e-39
0.57693136 0.33684459 0.62931943 1.939753e-39
0.66181052 0.33836383 0.6206497 1.0694693e-38
0.43851241 0.39860597 0.62234914 1.0694693e-38
0.57195723 0.39786458 0.62065923 1.0602497e-38
0.54645574 0.4080523 0.62152547 1.0694693e-38
0.68012071 0.42356309 0.62072229 1.0602497e-38
0.3309409 0.45585284 0.62146032 1.0694693e-38
0.4667145 -0.42009825 0.63783699 6.2678623e-39
0.46455336 -0.41585436 0.63462096 6.2689413e-39
0.45794404 -0.40445051 0.63401294 6.2509472e-39
0.44951302 -0.39051953 0.63693362 6.2448278e-39
0.45259875 -0.39548743 0.63451296 6.2448278e-39
0.44667497 -0.38541529 0.63419771 6.2448278e-39
0.44166163 -0.37643841 0.63478434 6.2448278e-39
0.43620506 -0.36675844 0.63576061 6.6136075e-39
0.42855963 -0.3535611 0.63643831 6.7061618e-39
0.43172404 -0.3587575 0.6350854 6.5214132e-39
0.42418087 -0.34599027 0.63713884 6.2448278e-39
0.41703844 -0.33443481 0.63461339 6.2448278e-39
0.42004478 -0.33895332 0.63890386 6.2448278e-39
0.40981418 -0.32007605 0.63758683 6.2448278e-39
0.41297221 -0.32562178 0.63544863 6.1529923e-39
0.40709895 -0.31480154 0.63541555 6.2448278e-39
0.40233654 -0.30578238 0.63522303 6.2448278e-39
0.62883413 -0.30110985 0.63638759 3.0443559e-39
0.63192511 -0.30377179 0.63685375 3.5979067e-39
0.3986367 -0.29352814 0.63640755 6.3381024e-39
0.4013685 -0.29124618 0.63684213 6.2448278e-39
0.62469816 -0.29513949 0.63515788 2.8599591e-39
0.39941609 -0.28991073 0.63103259 6.2448278e-39
0.40542281 -0.28667107 0.63421315 7.0749359e-39
0.4123143 -0.28189838 0.63564521 6.2448278e-39
0.61746967 -0.28377742 0.63460255 2.8599577e-39
0.62097067 -0.28891885 0.63580924 2.8599577e-39
0.41712025 -0.27847403 0.63501132 6.2448278e-39
0.42533931 -0.27367422 0.63536483 6.2448278e-39
0.43108052 -0.27046075 0.63508224 6.2448278e-39
0.60823292 -0.27197164 0.6335755 2.8599577e-39
0.61263973 -0.27588621 0.6353296 3.3209302e-39
0.43612206 -0.26769325 0.6347121 6.2448278e-39
0.44152063 -0.26476094 0.63534808 6.2448278e-39
0.59912711 -0.26140153 0.63050091 2.9517932e-39
0.60365534 -0.26557943 0.63535351 3.3209302e-39
0.59557414 -0.25543889 0.63505912 9.1281142e-39
0.58689517 -0.24432978 0.63509458 1.1247871e-38
0.59086233 -0.24921633 0.63567048 1.1432261e-38
0.57736677 -0.23326798 0.63484335 1.1616649e-38
0.58161521 -0.23805761 0.63544691 1.1616649e-38
0.56780493 -0.22204876 0.63546145 1.1616651e-38
0.57206416 -0.22711584 0.63444114 1.1524814e-38
0.55896348 -0.21091919 0.63435113 1.1524814e-38
0.56309539 -0.2161532 0.6348905 1.1616651e-38
0.55444092 -0.20480743 0.63532549 9.1277541e-39
0.5476203 -0.19439723 0.63493806 2.8599577e-39
0.55073541 -0.19881028 0.63792223 4.4269064e-39
0.53933638 -0.18049368 0.6314522 5.5126815e-39
0.54218662 -0.18527615 0.63513947 3.1343768e-39
0.53724229 -0.1745726 0.63526696 5.0553145e-39
0.54010814 -0.1793018 0.63999945 2.8599577e-39
0.53734434 -0.16848102 0.63598824 3.1361816e-39
0.54487884 -0.16533177 0.635346 2.8599577e-39
0.55295873 -0.16137435 0.63438094 2.8599577e-39
0.55797744 -0.15878735 0.63433212 2.8599577e-39
0.56529802 -0.15458032 0.63496131 2.8599577e-39
0.57170808 -0.15093814 0.63683069 3.1365404e-39
0.44758567 -0.071413577 0.6353898 5.3430095e-39
0.43783507 -0.06238379 0.63604146 4.5121614e-39
0.44199169 -0.067686155 0.63563997 4.7898329e-39
0.70682395 -0.064541981 0.63487607 1.1058434e-38
0.43516663 -0.05466165 0.63471991 4.6047214e-39
0.69814473 -0.052257463 0.63499433 1.0687489e-38
0.70204008 -0.057790317 0.63547093 1.0962635e-38
0.43709096 -0.045590892 0.63525403 5.0689562e-39
0.44104591 -0.040809769 0.63155222 3.77243e-39
0.69321024 -0.044888522 0.63498813 1.0319067e-38
0.44543919 -0.037332371 0.63490969 4.8845649e-39
0.45350829 -0.032126669 0.63496739 4.9774836e-39
0.68673843 -0.035283152 0.63491845 7.6381682e-39
0.4584969 -0.028497484 0.63336384 4.5136104e-39
0.46413329 -0.024479421 0.63562226 5.1625993e-39
0.47118166 -0.02011998 0.63474488 4.9778423e-39
0.67804384 -0.022261266 0.63515371 6.7118833e-39
0.68177807 -0.027821556 0.63502878 6.5289298e-39
0.47656474 -0.017863274 0.63587946 5.9019707e-39
0.67273062 -0.014705658 0.63502485 6.8033601e-39
0.66574258 -0.0047359467 0.63480359 6.8033601e-39
0.65780056 0.0068734721 0.63524568 7.0774317e-39
0.66080207 0.0025063825 0.63506252 6.9863136e-39
0.64911205 0.018991938 0.63427728 1.0403701e-38
0.65283358 0.013832676 0.63539439 8.64477e-39
0.64520401 0.025318645 0.63477767 1.0217149e-38
0.6385566 0.036745723 0.63491929 9.7522077e-39
0.64086902 0.032388158 0.63537419 9.9366004e-39
0.4532713 0.049827605 0.63764369 7.9302437e-39
0.63788718 0.041163195 0.63487834 1.0777164e-38
0.64426005 0.046670076 0.63485402 1.1432257e-38
0.45388111 0.055591572 0.63393825 8.3061098e-39
0.64958447 0.051178575 0.63534802 9.680181e-39
0.65490955 0.055498 0.63473904 8.9429761e-39
0.45755163 0.064336434 0.63381761 8.3064685e-39
0.4614228 0.069581933 0.63480878 8.3064685e-39
0.65318441 0.065319553 0.63172811 1.0777161e-38
0.66556436 0.063414887 0.63559109 9.0351717e-39
0.6728946 0.068779625 0.63555068 1.1063476e-38
0.46666685 0.072332658 0.63508713 8.3064685e-39
0.47519785 0.076990344 0.63508087 8.3064685e-39
0.48004079 0.079693183 0.63873148 8.3064685e-39
0.67774457 0.072275437 0.63504148 1.1616288e-38
0.68062717 0.073559217 0.63585705 1.1615568e-38
0.47845381 0.08362329 0.63227177 9.5007601e-39
0.48512959 0.08318457 0.63578266 8.3064685e-39
0.49264985 0.087936737 0.63592046 8.3064685e-39
0.49748653 0.091145381 0.63372833 8.4901493e-39
0.50445378 0.095398404 0.63523334 8.9500639e-39
0.51000762 0.098826043 0.6341666 8.4905066e-39
0.51592231 0.10211833 0.63539791 8.5819862e-39
0.52499437 0.10727552 0.63747591 9.3177814e-39
0.53100395 0.10988343 0.63372731 9.134102e-39
0.53655356 0.11236161 0.63496953 8.6741874e-39
0.54415309 0.11558901 0.63567114 8.3064685e-39
0.60779208 0.13515641 0.63517171 2.9517918e-39
0.61005163 0.13059801 0.63983357 2.9517918e-39
0.60617673 0.14517717 0.63518971 8.9386741e-39
0.6080988 0.15158534 0.6327728 1.1616649e-38
0.61341751 0.15271243 0.63565415 1.1801041e-38
0.4464871 0.19740671 0.63466537 8.7599469e-39
0.4527187 0.19399002 0.63464034 1.0141039e-38
0.43824494 0.20771824 0.6354149 1.0048846e-38
0.44150639 0.20249946 0.63505393 9.6807934e-39
0.42849964 0.21823388 0.63354504 4.2421312e-39
0.43325406 0.21486494 0.63503689 3.5967814e-39
0.42717525 0.22454596 0.63529712 7.0990341e-39
0.62774473 0.22716841 0.63536298 7.0994208e-39
0.63240814 0.22160073 0.63607168 1.0234795e-38
0.42772245 0.23184875 0.63567913 6.8228269e-39
0.43217468 0.23758499 0.63588458 7.1916081e-39
0.61923915 0.23866455 0.6350283 6.5462471e-39
0.62270319 0.23385289 0.63504267 6.2696602e-39
0.43720308 0.24212438 0.63400507 7.1912339e-39
0.61471498 0.24498245 0.635391 6.0852703e-39
0.6068486 0.25570232 0.63525414 4.7091616e-39
0.61051047 0.25073233 0.63518941 6.5462485e-39
0.5980345 0.26731828 0.63462907 2.1341551e-39
0.60176116 0.26238164 0.63455248 2.1341551e-39
0.58950436 0.27897954 0.6344285 2.1341551e-39
0.59314364 0.27406418 0.63529158 2.1341551e-39
0.58496749 0.28485942 0.63502228 2.1341551e-39
0.57625782 0.29569983 0.63498759 2.1341551e-39
0.58043468 0.29057512 0.63563365 2.1341551e-39
0.5672583 0.30622596 0.63518035 2.1341551e-39
0.57140005 0.3014397 0.63532698 2.1341551e-39
0.56306565 0.31473655 0.63508511 2.1334405e-39
0.56471032 0.3248376 0.63516068 1.6649584e-39
0.57438314 0.3348428 0.63518518 1.5709761e-39
0.58406496 0.34219185 0.63564909 1.5709761e-39
0.59182465 0.34854567 0.63851488 1.8475616e-39
0.46599674 -0.42040157 0.6446107 6.2617442e-39
0.46264806 -0.4146091 0.6445114 6.2635421e-39
0.45774886 -0.40606916 0.64422166 6.2516661e-39
0.44989124 -0.39297777 0.64757431 6.2448278e-39
0.45202294 -0.39600715 0.6439786 6.2448278e-39
0.44511473 -0.3841171 0.64445233 6.2448278e-39
0.43732417 -0.37071267 0.6451928 6.2448278e-39
0.44023615 -0.37571037 0.6443758 6.2448278e-39
0.43350646 -0.36391538 0.64580494 7.5348379e-39
0.42790186 -0.35362595 0.64476973 7.9043351e-39
0.43171781 -0.3598631 0.6408419 7.3508068e-39
0.42252803 -0.34419841 0.64545333 6.6136075e-39
0.41729477 -0.33460125 0.64488482 6.2448292e-39
0.4203735 -0.33981782 0.64118373 6.2448292e-39
0.41213024 -0.32516244 0.64482939 6.4295763e-39
0.3977288 -0.31031296 0.64079547 6.2448278e-39
0.40661398 -0.31513816 0.64562213 6.2448278e-39
0.39934966 -0.30075699 0.64363271 6.2448278e-39
0.401517 -0.30488375 0.64649332 6.2448278e-39
0.41376722 -0.30635369 0.6428107 6.1529923e-39
0.62936634 -0.30091405 0.64717591 2.8599577e-39
0.63187015 -0.30444705 0.64952588 2.7677621e-39
0.39827088 -0.29516315 0.64552504 6.2451879e-39
0.40118575 -0.29095259 0.64288008 6.2448278e-39
0.62561154 -0.29474744 0.64513183 2.9521533e-39
0.4058463 -0.28614116 0.6456818 7.0749359e-39
0.41226223 -0.28125694 0.64484698 6.2448278e-39
0.6182676 -0.28247383 0.64451307 2.8599577e-39
0.62141472 -0.2872943 0.64550745 2.8599577e-39
0.41696259 -0.27810752 0.64501882 6.2448278e-39
0.42499542 -0.27365762 0.64492488 6.2448278e-39
0.43111134 -0.27043897 0.64475691 6.2448278e-39
0.6091646 -0.27057675 0.64228272 2.8599577e-39
0.61379302 -0.27586505 0.6448943 2.8599577e-39
0.43618178 -0.2677359 0.64492661 6.2448278e-39
0.44162232 -0.2648102 0.64460671 6.2448278e-39
0.60498321 -0.26520073 0.6451323 5.3484942e-39
0.59616148 -0.25421295 0.64450336 1.1616651e-38
0.60024303 -0.25915799 0.64669538 1.1432261e-38
0.58758241 -0.24321923 0.64469719 1.1708845e-38
0.59163296 -0.24826287 0.64550537 1.1708845e-38
0.56605226 -0.23181653 0.64123535 8.4823903e-39
0.57818019 -0.23211993 0.64536709 1.1708845e-38
0.58252484 -0.23700476 0.64537507 1.1708845e-38
0.56889766 -0.22221893 0.6441043 1.1801041e-38
0.57325417 -0.22679923 0.64498591 1.1708845e-38
0.55932254 -0.21038912 0.64476252 1.1708845e-38
0.56352377 -0.21559317 0.64512211 1.1801041e-38
0.55545378 -0.20479557 0.64460343 1.1616651e-38
0.54775172 -0.19326843 0.64522058 2.9521519e-39
0.55116689 -0.19837131 0.64422655 6.4548291e-39
0.53542 -0.18918923 0.64902413 4.2313188e-39
0.54312593 -0.18495554 0.64498115 2.8599577e-39
0.538068 -0.17402995 0.64452732 3.2276542e-39
0.54051411 -0.17900786 0.6465041 2.8599577e-39
0.53801179 -0.1689861 0.64465201 2.8595975e-39
0.54462391 -0.16569309 0.64416081 2.8599577e-39
0.55324811 -0.16136906 0.64355242 2.8599577e-39
0.54447329 -0.15950176 0.6444397 2.8599577e-39
0.55865538 -0.15869637 0.64269197 2.8599577e-39
0.56465393 -0.15574381 0.64301521 2.8599577e-39
0.57294542 -0.15247525 0.64258069 4.9797159e-39
0.56760961 -0.14419354 0.64004958 1.0879084e-38
0.44809997 -0.071120888 0.6435914 6.9164827e-39
0.43817711 -0.063098572 0.64512289 7.0068665e-39
0.44201899 -0.067894362 0.64365804 7.0994222e-39
0.70731962 -0.063786812 0.64505816 9.4626574e-39
0.71116489 -0.066353165 0.64830834 1.1228421e-38
0.43471241 -0.055345759 0.64473671 7.4692936e-39
0.69860137 -0.052471712 0.6447975 5.9693073e-39
0.70236367 -0.057427373 0.6456551 8.6325366e-39
0.43746781 -0.046185628 0.64334458 6.1821757e-39
0.44062489 -0.04137262 0.64511657 6.1821757e-39
0.69326782 -0.04479748 0.64534277 6.8876622e-39
0.44596246 -0.037377875 0.64486212 6.0899801e-39
0.45306191 -0.03255586 0.64504391 6.1821757e-39
0.68661314 -0.035066832 0.64516532 7.2550042e-39
0.45807391 -0.029045874 0.64507574 6.1818156e-39
0.46519151 -0.023928605 0.6451394 6.0899801e-39
0.47894678 -0.021989731 0.64140326 1.0786889e-38
0.67794341 -0.022539094 0.64556175 8.7243721e-39
0.68167573 -0.027902279 0.64425117 8.7243721e-39
0.47360235 -0.01876967 0.64567339 6.3665684e-39
0.48280969 -0.019309442 0.64036322 7.4729145e-39
0.66977954 -0.010973554 0.6457752 8.7243721e-39
0.67290437 -0.015354823 0.64520961 8.7243721e-39
0.66550279 -0.0048024664 0.64468062 8.7243721e-39
0.65787941 0.006218405 0.6451416 8.7243721e-39
0.66104966 0.0016249022 0.64495647 8.7243721e-39
0.6493119 0.018664865 0.64534748 8.7243721e-39
0.65275258 0.013607187 0.64529067 8.7243721e-39
0.64498031 0.025497694 0.64477384 8.7247323e-39
0.63804203 0.036789902 0.64593196 9.0027597e-39
0.6406675 0.0326491 0.64420629 8.817288e-39
0.65322483 0.032387644 0.64625549 9.957128e-39
0.63851446 0.041051667 0.64376414 1.1144147e-38
0.64419603 0.045685485 0.6454702 1.0214628e-38
0.44900954 0.054320924 0.64766103 8.1192396e-39
0.45407069 0.053434197 0.64406615 8.1153412e-39
0.46263823 0.051475946 0.64173806 7.6522373e-39
0.64937252 0.051003516 0.64367485 9.9484848e-39
0.65479231 0.05524303 0.64528376 9.1115215e-39
0.66242075 0.059493929 0.64671767 9.9358801e-39
0.4556478 0.063956276 0.6453408 8.3983124e-39
0.46213362 0.068823174 0.64496326 8.3064685e-39
0.66484141 0.062594034 0.64422315 9.2998742e-39
0.6745491 0.068186492 0.64545029 9.9398416e-39
0.68323553 0.065557353 0.64079624 9.2865493e-39
0.46764249 0.07185673 0.64512014 8.3064685e-39
0.47462425 0.075943395 0.64509869 8.3064685e-39
0.48035121 0.079472683 0.64380556 8.3064685e-39
0.67901236 0.071476318 0.64215171 1.1056633e-38
0.68350053 0.072707519 0.64609855 9.6567723e-39
0.48574668 0.083044767 0.64557236 8.3064685e-39
0.4933905 0.088064127 0.64441335 8.8582256e-39
0.49836564 0.091285735 0.64348727 9.777696e-39
0.50497633 0.095537841 0.64450628 9.2259431e-39
0.51164401 0.099736854 0.64688915 9.1341006e-39
0.51608425 0.10231466 0.64399725 8.9500639e-39
0.52452224 0.10700842 0.64583355 9.2259417e-39
0.53372633 0.11172888 0.64492893 8.5823449e-39
0.54481858 0.11657619 0.64521581 8.3064685e-39
0.6097492 0.12990862 0.64826232 1.2903801e-39
0.60824382 0.13488165 0.645033 2.5786428e-39
0.61887205 0.13885635 0.6497426 1.0786889e-38
0.60663027 0.14447832 0.64485067 6.4508312e-39
0.60674858 0.15071808 0.64662117 1.1801041e-38
0.44614226 0.19729069 0.64529353 8.7599469e-39
0.45489037 0.19353749 0.64307821 1.2813957e-38
0.4381566 0.20735899 0.64525193 1.1429936e-38
0.44149747 0.20248069 0.64502388 9.4045764e-39
0.42954984 0.21906263 0.64657599 2.9517904e-39
0.43324435 0.21422772 0.64466435 3.5971402e-39
0.63705987 0.21987897 0.64203852 1.1895037e-38
0.42682216 0.22482476 0.64533669 8.0202491e-39
0.62825376 0.22740711 0.64432585 4.2489037e-39
0.63374054 0.22291987 0.64608961 1.0144399e-38
0.64176834 0.22073495 0.64719176 7.749486e-39
0.42735741 0.23254783 0.64512372 7.6518547e-39
0.43471402 0.23956449 0.64125264 6.9146582e-39
0.61931026 0.23936513 0.64324391 4.1570682e-39
0.62342882 0.23437214 0.64512002 3.4212996e-39
0.6658811 0.23256283 0.64977592 1.1895037e-38
0.43763983 0.24199191 0.6432299 7.098325e-39
0.61569995 0.24497606 0.64580727 3.0539548e-39
0.6614325 0.24278638 0.64569271 2.5891091e-39
0.60703385 0.25651544 0.64547157 2.7788057e-39
0.61110705 0.25146788 0.64631742 3.2387048e-39
0.59841776 0.26763627 0.64439094 2.1341551e-39
0.60222602 0.26298824 0.6458199 2.226355e-39
0.58951789 0.27927485 0.64237922 2.1341551e-39
0.59365934 0.27456436 0.64578426 2.1334391e-39
0.58545637 0.28531128 0.64508796 2.0416022e-39
0.59006464 0.28038883 0.6488446 2.0405302e-39
0.60026157 0.28750101 0.64432472 5.4446443e-39
0.57707816 0.29596725 0.64501339 2.1341551e-39
0.58092993 0.29157212 0.64683455 2.1337992e-39
0.56812102 0.30765957 0.64408439 2.0419609e-39
0.57200068 0.30271903 0.64575952 2.1341565e-39
0.56448501 0.31492269 0.64520103 2.4100274e-39
0.56568813 0.32449657 0.64592361 1.7567981e-39
0.5711295 0.32911551 0.64923084 1.7560946e-39
0.56825858 0.33001685 0.64225239 1.5709761e-39
0.575095 0.33405629 0.64594465 1.5709789e-39
0.58122855 0.33884192 0.64678383 1.5709761e-39
0.60159647 0.3335903 0.64891529 1.9408474e-39
0.58598548 0.34294692 0.64563411 1.5709761e-39
0.59281945 0.34768212 0.64668369 1.6631717e-39
0.59469265 0.35055482 0.6402604 2.2159826e-39
0.46569276 -0.42042771 0.65523762 6.2480662e-39
0.45904782 -0.41085753 0.65731782 6.2462683e-39
0.46257594 -0.41612813 0.65615505 6.2473487e-39
0.45572054 -0.40523803 0.65484023 6.1540727e-39
0.44971791 -0.39410377 0.65481001 6.2448278e-39
0.45179972 -0.39794222 0.65594631 6.2448278e-39
0.44517136 -0.38626775 0.65552133 6.3370234e-39
0.4253028 -0.37026876 0.65404111 1.097128e-38
0.43761572 -0.37285739 0.65449798 6.7979973e-39
0.44058895 -0.37816572 0.65496945 6.5214118e-39
0.43348074 -0.36546093 0.65507239 7.166777e-39
0.42860278 -0.35649246 0.6544072 1.0115217e-38
0.41930401 -0.34023756 0.65729266 6.9823858e-39
0.42306024 -0.3466087 0.65479189 8.2731148e-39
0.41680837 -0.3351739 0.65476066 7.1660568e-39
0.4092575 -0.32137579 0.65440482 6.5224894e-39
0.41255534 -0.32731828 0.65401614 7.0749401e-39
0.40554255 -0.31420174 0.6552245 6.3373821e-39
0.40235823 -0.30555415 0.6537438 6.2448278e-39
0.63516712 -0.3034859 0.65305144 3.3213114e-39
0.64070004 -0.30592746 0.65637898 2.3064098e-39
0.39834356 -0.29379177 0.65399826 6.2448278e-39
0.40025765 -0.29909372 0.6555531 6.2448278e-39
0.62771708 -0.29432723 0.65157861 3.6901023e-39
0.63218594 -0.29796642 0.65342438 3.7823007e-39
0.39924201 -0.28948602 0.65604365 6.2448278e-39
0.40500033 -0.28553113 0.65544111 7.0749359e-39
0.41177037 -0.28111947 0.65429533 6.2448278e-39
0.61930162 -0.28171897 0.65522575 2.8599577e-39
0.62256408 -0.28654227 0.65324342 3.32131e-39
0.41674319 -0.2779966 0.65507841 6.4303008e-39
0.4248744 -0.27361184 0.65497768 6.2448278e-39
0.43108183 -0.27037722 0.65437937 6.2448278e-39
0.61435252 -0.27481711 0.65521955 2.8599577e-39
0.43572006 -0.26797837 0.65515244 6.2448278e-39
0.44128209 -0.26509777 0.65438586 6.2448278e-39
0.59522444 -0.26401147 0.65604419 7.4686097e-39
0.60553008 -0.26410735 0.65493995 7.9292235e-39
0.61030024 -0.26942298 0.6568684 3.0439874e-39
0.59704977 -0.25369114 0.65478122 9.9560434e-39
0.60092992 -0.25813037 0.65647584 1.0047879e-38
0.58823258 -0.24251428 0.65458632 9.125924e-39
0.59193462 -0.247078 0.6551829 9.3103153e-39
0.5787704 -0.2310206 0.65396416 8.9408097e-39
0.58336705 -0.23643693 0.65523994 8.6642228e-39
0.56848222 -0.22022568 0.65003693 1.1708845e-38
0.57388747 -0.22515826 0.65489638 9.0330053e-39
0.55973792 -0.21019591 0.65094113 1.1708845e-38
0.56517196 -0.21527633 0.65573269 1.0048239e-38
0.55636054 -0.20516868 0.65503961 1.0971287e-38
0.54794097 -0.19314541 0.65590221 2.9517932e-39
0.55118573 -0.19805011 0.65575433 3.9659339e-39
0.5439961 -0.18536706 0.65465808 2.8599577e-39
0.53829598 -0.17368367 0.65514892 2.8599577e-39
0.54076582 -0.17885321 0.65396261 2.8599577e-39
0.5381487 -0.16740179 0.65646821 2.8599577e-39
0.54717159 -0.1575678 0.65853631 2.8599577e-39
0.55721211 -0.15303092 0.65831351 2.8599577e-39
0.56530195 -0.15146069 0.65334111 3.228736e-39
0.56737083 -0.14881134 0.65815175 6.0856921e-39
0.57235199 -0.14819555 0.65562582 1.0510314e-38
0.44677973 -0.072408177 0.65732902 6.4555046e-39
0.43756145 -0.063490003 0.65534401 6.1771072e-39
0.4412438 -0.068388782 0.65570325 5.8086848e-39
0.70811588 -0.061241738 0.65537441 8.5407011e-39
0.71306551 -0.065365419 0.65258676 1.0767081e-38
0.43450707 -0.054447282 0.65445548 6.085636e-39
0.69820338 -0.052026957 0.65506631 6.7958267e-39
0.70352399 -0.057170164 0.65474111 6.9794977e-39
0.43650541 -0.045535795 0.65627378 6.9190149e-39
0.44137433 -0.040803067 0.65548056 7.3792741e-39
0.6936568 -0.045048401 0.65470546 6.2448137e-39
0.44612813 -0.03766996 0.65483296 6.5505953e-39
0.45320576 -0.032872897 0.65453953 6.1821757e-39
0.6862874 -0.034381535 0.65479928 8.5407011e-39
0.69021273 -0.039916627 0.6577664 8.1733592e-39
0.45878926 -0.028843597 0.65416938 6.1821757e-39
0.46420363 -0.024810059 0.65536028 6.6427923e-39
0.47141254 -0.020984862 0.65385562 7.0119378e-39
0.67810643 -0.023439065 0.65509546 8.7243721e-39
0.68142545 -0.027904047 0.65467018 8.7243721e-39
0.47623664 -0.019081699 0.65279162 7.1048565e-39
0.48196337 -0.018347006 0.65366113 7.1963276e-39
0.66925657 -0.010764963 0.65430486 8.7243721e-39
0.67299008 -0.016158374 0.65544808 8.7243721e-39
0.6652751 -0.0050266823 0.65478516 8.7243721e-39
0.65766346 0.0060779201 0.65485805 8.7243721e-39
0.66155982 0.0019208168 0.6550253 8.7243721e-39
0.64898705 0.018512871 0.65473938 8.7243721e-39
0.65275854 0.013132574 0.65514576 8.7243721e-39
0.64416987 0.025469229 0.65500301 8.7243721e-39
0.63823301 0.035373289 0.65505248 8.7243721e-39
0.64010477 0.031535588 0.65311307 8.7243721e-39
0.46223664 0.048069075 0.6589855 3.3190427e-39
0.64443088 0.044509556 0.65506607 8.7243721e-39
0.44926015 0.054277461 0.65419233 8.2135596e-39
0.45229238 0.058030844 0.65558851 8.3990215e-39
0.65377855 0.054070324 0.65471119 8.7243721e-39
0.66076678 0.059793249 0.65587628 8.7243721e-39
0.45667252 0.063466161 0.65448183 8.4912157e-39
0.46217194 0.06784296 0.65535504 8.3064685e-39
0.66543114 0.062879451 0.6554895 8.7243721e-39
0.67546672 0.06762892 0.65339065 8.7243721e-39
0.46794072 0.07168515 0.65489185 8.3064685e-39
0.4755514 0.07653334 0.65464568 8.3064685e-39
0.48352173 0.076102473 0.65032488 8.3983054e-39
0.68559825 0.072273009 0.6522156 8.7243721e-39
0.48516142 0.082983382 0.65552038 8.3983068e-39
0.492991 0.088060997 0.65439707 9.5940208e-39
0.49820963 0.091431983 0.65465117 9.5018209e-39
0.50564641 0.096283607 0.65537989 8.4901465e-39
0.51025373 0.099269256 0.65301329 8.4901451e-39
0.51552325 0.10222756 0.65581667 9.0419022e-39
0.52480239 0.10721555 0.65489966 9.2259445e-39
0.5344975 0.11217743 0.65363628 8.5823449e-39
0.54274523 0.11615834 0.6540795 8.6738343e-39
0.60971934 0.12938085 0.65493143 1.7513316e-39
0.60751086 0.13477898 0.65510756 1.3825547e-39
0.60585278 0.14518939 0.65494156 9.219563e-39
0.60782909 0.15235527 0.65516436 1.1708845e-38
0.61089844 0.15449536 0.65877593 1.3644953e-38
0.44607148 0.19633569 0.65498054 1.0141037e-38
0.4510918 0.19230534 0.6566633 1.1706157e-38
0.43742299 0.2068301 0.65535396 1.1429936e-38
0.44119802 0.20174843 0.6543979 1.1245912e-38
0.42869788 0.21804918 0.65556854 2.9517918e-39
0.43263346 0.21328789 0.65490651 3.5967814e-39
0.63099289 0.21786645 0.65053195 7.4685649e-39
0.426869 0.22483021 0.65443003 7.7440293e-39
0.62955141 0.22868535 0.65094614 2.1341551e-39
0.63532799 0.2266112 0.65320587 8.4935012e-39
0.6437676 0.2260925 0.65444803 7.4836625e-39
0.65097404 0.2281898 0.65379286 3.1522854e-39
0.42684308 0.23262773 0.65435249 9.7726961e-39
0.43109256 0.23781279 0.65881699 7.5593046e-39
0.62631571 0.23546003 0.65288526 2.7841965e-39
0.63480055 0.23507309 0.65534747 3.433519e-39
0.64481115 0.23535489 0.65642154 6.5638614e-39
0.65429199 0.23557349 0.65647846 1.0978853e-38
0.66267979 0.23804131 0.65558505 2.5891091e-39
0.43889356 0.24302332 0.65091538 8.3890428e-39
0.61762464 0.24646382 0.6519627 2.5058117e-39
0.62389493 0.24453436 0.65433019 3.24769e-39
0.63440472 0.24510247 0.65581125 3.4338791e-39
0.6448645 0.2450036 0.65684766 3.3391807e-39
0.65507072 0.24489544 0.65751594 4.6231177e-39
0.66404128 0.24548487 0.65784156 7.1041628e-39
0.6722312 0.24666212 0.65540975 8.3945387e-39
0.6085245 0.25863272 0.65136534 2.2245795e-39
0.61517227 0.25522986 0.65335983 2.7809917e-39
0.62525964 0.25498679 0.6548965 2.9625383e-39
0.63483602 0.25500193 0.65558898 2.6816607e-39
0.64575809 0.25514397 0.65610272 2.5876798e-39
0.65550601 0.25510672 0.65679032 2.5873225e-39
0.66415834 0.25474638 0.65714508 2.6795153e-39
0.67044848 0.25202209 0.65693831 1.1436259e-38
0.59969699 0.26866847 0.6500538 2.0358961e-39
0.60579252 0.26561356 0.65270793 2.2181644e-39
0.61547089 0.26486209 0.6543898 3.2326863e-39
0.62529337 0.2649591 0.65451235 3.9698884e-39
0.63498342 0.265026 0.65495294 2.5873211e-39
0.64533228 0.26534212 0.65572304 2.4954842e-39
0.65525985 0.26495659 0.65614873 2.8642681e-39
0.66244364 0.2632193 0.65607202 4.707445e-39
0.59660971 0.27547798 0.65242469 2.0337661e-39
0.60424417 0.27485839 0.65456212 2.6795139e-39
0.61532563 0.27476892 0.65474868 8.3938072e-39
0.62524116 0.27493584 0.65474659 1.1527354e-38
0.63479728 0.27506682 0.65535206 4.9836703e-39
0.64508641 0.27511552 0.65659106 2.4954842e-39
0.65386456 0.2749584 0.6573683 7.4729439e-39
0.58751196 0.28671914 0.65240431 1.941925e-39
0.59472448 0.28446102 0.65450627 2.4947597e-39
0.60524303 0.28498203 0.65530729 8.0253862e-39
0.61492825 0.28478748 0.65522796 1.125077e-38
0.62500995 0.28517619 0.65552962 9.6841747e-39
0.63488966 0.28511363 0.65634859 4.6148892e-39
0.64430046 0.28448638 0.65780711 4.7074492e-39
0.65152842 0.28244776 0.65861148 1.3924802e-38
0.57849544 0.29772413 0.6516605 1.8497126e-39
0.58461475 0.29457489 0.65422678 2.2181644e-39
0.59544438 0.29520798 0.65518945 6.9194072e-39
0.60477149 0.29506314 0.65530789 1.0236984e-38
0.61460912 0.29494184 0.65578353 1.1250769e-38
0.62497157 0.29498246 0.65647215 4.6152494e-39
0.63515055 0.29475561 0.65719378 3.601466e-39
0.64239961 0.29428753 0.65660769 8.3023347e-39
0.56938231 0.30927226 0.65152681 1.7571624e-39
0.57498157 0.30523935 0.65403491 2.0334032e-39
0.58436662 0.30473697 0.65628016 4.6152536e-39
0.59502596 0.30494329 0.65589416 1.161955e-38
0.60529912 0.30509681 0.65647107 1.1250766e-38
0.61541986 0.30507591 0.65708852 4.707445e-39
0.62504846 0.30483171 0.65728235 3.2326905e-39
0.63357085 0.30442965 0.65582651 8.117949e-39
0.56799179 0.31516099 0.65196246 1.9415621e-39
0.57421172 0.31525815 0.65562248 2.4947583e-39
0.58433348 0.31506422 0.65614092 9.7763717e-39
0.59483993 0.31487212 0.65612501 1.0881986e-38
0.60477501 0.31503004 0.65686089 6.9194016e-39
0.61490476 0.31476885 0.65789062 2.6795167e-39
0.62431568 0.31369063 0.6573391 8.2101418e-39
0.56777918 0.32268161 0.65129918 1.9408516e-39
0.57467604 0.32521018 0.65402812 2.2181686e-39
0.5850845 0.32515824 0.65536696 4.9836703e-39
0.59500444 0.32497686 0.65592015 8.3938044e-39
0.60498273 0.32508248 0.65659356 2.6795153e-39
0.61473823 0.32450503 0.65735465 5.1684259e-39
0.57766771 0.33256221 0.65206671 1.8482931e-39
0.58518243 0.33472422 0.65441847 2.3100041e-39
0.59509444 0.33504674 0.6558075 2.6798754e-39
0.60530537 0.33465874 0.65628356 3.9698898e-39
0.61317748 0.33195448 0.65645903 1.2818466e-38
0.58736253 0.34142438 0.65183848 1.7557345e-39
0.59571481 0.34406075 0.65411097 2.4021969e-39
0.60258603 0.34268418 0.65505844 4.3386653e-39
0.60070425 0.35568205 0.65626603 1.0694693e-38
0.46835113 -0.42169386 0.6600855 6.245548e-39
0.4599008 -0.41194353 0.66139185 6.2451879e-39
0.46413186 -0.41657385 0.66138667 6.2451879e-39
0.4552694 -0.4049657 0.6640476 6.2448278e-39
0.44746518 -0.3917554 0.66539663 6.5221293e-39
0.45071596 -0.39735186 0.6654734 6.2448278e-39
0.44286585 -0.38394028 0.66585493 7.6288244e-39
0.4371365 -0.37385735 0.66542453 8.5486199e-39
0.44083571 -0.37970805 0.66145658 7.1664169e-39
0.42989868 -0.36080691 0.66500747 9.8389916e-39
0.43351915 -0.36714873 0.66428012 7.7192264e-39
0.44539431 -0.36866111 0.66619891 8.1805604e-39
0.42578268 -0.35355705 0.66488171 1.07613e-38
0.41922802 -0.34155542 0.66437131 8.2731134e-39
0.42164493 -0.34626114 0.66562605 9.8418628e-39
0.41546708 -0.33471969 0.66580689 9.1936221e-39
0.40869716 -0.32169503 0.66454899 7.7249717e-39
0.41131148 -0.32676873 0.66527313 8.2774196e-39
0.40513545 -0.31504032 0.66542071 6.3377408e-39
0.39970493 -0.30324015 0.66504192 6.2448278e-39
0.40149194 -0.30759621 0.665218 6.2448278e-39
0.63561523 -0.30262747 0.66642147 2.3064098e-39
0.39822644 -0.29364875 0.66511822 6.6164899e-39
0.40140465 -0.29121393 0.6662783 6.2448278e-39
0.62641799 -0.29288048 0.6666255 2.8599577e-39
0.63153815 -0.29828411 0.66697383 2.8599577e-39
0.39420381 -0.28286657 0.66728985 6.2451879e-39
0.40594611 -0.28666121 0.66414464 7.1671302e-39
0.41174808 -0.28169739 0.66429806 6.8012413e-39
0.42486176 -0.28558457 0.66325092 7.4386934e-39
0.61923599 -0.28126568 0.66448176 2.8599577e-39
0.62205142 -0.28622523 0.6656183 2.8599577e-39
0.41669491 -0.27801749 0.66472822 8.9311001e-39
0.42541242 -0.27385741 0.66533411 7.4487715e-39
0.43125001 -0.27084827 0.66588128 8.1892134e-39
0.61590374 -0.27535558 0.66530037 3.0443461e-39
0.43619192 -0.26799828 0.66525877 7.8197135e-39
0.44099867 -0.26543376 0.6648227 6.2448278e-39
0.60715896 -0.2640411 0.66480285 1.0325923e-38
0.61120689 -0.26891261 0.66493571 5.9938566e-39
0.59752339 -0.25218144 0.66503882 7.0014547e-39
0.60190737 -0.25756297 0.66518086 7.8322957e-39
0.58856738 -0.24111581 0.66394109 6.2620833e-39
0.59271038 -0.24611335 0.66513717 6.2620833e-39
0.57911384 -0.23032813 0.6601404 7.3716805e-39
0.58395213 -0.23509109 0.66532773 5.8922176e-39
0.57559013 -0.22497559 0.66499346 6.2620833e-39
0.5665679 -0.21441709 0.66515559 7.1865662e-39
0.57132167 -0.2192167 0.66747952 6.0766103e-39
0.556943 -0.20388214 0.6649428 1.1340064e-38
0.56147164 -0.20869564 0.66585821 7.833016e-39
0.54864281 -0.1921175 0.66447139 2.8599577e-39
0.55198914 -0.19732933 0.66481715 6.5470234e-39
0.54418874 -0.18477643 0.66489565 2.8599577e-39
0.53859091 -0.17324768 0.66447818 2.8599577e-39
0.54102254 -0.1772535 0.6670844 2.8599577e-39
0.53846127 -0.1654682 0.66485262 2.8599577e-39
0.54135215 -0.16094595 0.66510308 2.8599577e-39
0.54605067 -0.15779071 0.66567469 2.8599577e-39
0.55435246 -0.15301019 0.66561651 2.9521519e-39
0.56512046 -0.15020792 0.66677266 3.1365516e-39
0.56519312 -0.14945234 0.66520196 3.0443531e-39
0.57461846 -0.14849299 0.66522461 1.0695071e-38
0.58079118 -0.14893305 0.66847849 1.1337535e-38
0.44600666 -0.072120786 0.66612142 6.9172072e-39
0.43722463 -0.0634996 0.66481793 5.7161291e-39
0.44102269 -0.068293206 0.66496724 5.9005203e-39
0.70623529 -0.063448764 0.6671716 7.6234266e-39
0.71448362 -0.068071723 0.66370571 1.3132476e-38
0.7206189 -0.069370747 0.66289222 6.7958267e-39
0.43431252 -0.055488784 0.66512716 6.1781918e-39
0.69804287 -0.052326474 0.66527385 6.5203202e-39
0.70161748 -0.056637961 0.66569602 7.4386752e-39
0.43665519 -0.046144363 0.66501945 7.0112105e-39
0.44127989 -0.040995348 0.66453397 7.5636626e-39
0.69311404 -0.045107301 0.66511732 7.1631687e-39
0.44590092 -0.037720028 0.66518539 7.1030488e-39
0.45387977 -0.032295987 0.66501302 3.6947168e-39
0.68580955 -0.034705047 0.66531128 8.7243721e-39
0.45865759 -0.027954368 0.66410667 3.8791052e-39
0.46414813 -0.024748042 0.66541678 5.2609509e-39
0.47063971 -0.021980967 0.66499853 8.2083089e-39
0.67768455 -0.023121106 0.66470218 8.7243721e-39
0.68085444 -0.0276457 0.6651817 8.7243721e-39
0.69107503 -0.021545574 0.66113895 6.8062384e-39
0.4761726 -0.018959204 0.66784495 7.4729145e-39
0.48232421 -0.018952634 0.66614586 7.84206e-39
0.66904807 -0.010847679 0.6657747 8.7243721e-39
0.67273766 -0.016119106 0.6648708 8.7243721e-39
0.65381867 -0.0028167665 0.66416317 1.5765451e-38
0.66510665 -0.0049684299 0.66499466 8.7243721e-39
0.65739089 0.0063187862 0.66487616 8.7243721e-39
0.66101778 0.0010340274 0.66474366 8.7243721e-39
0.6485675 0.018662462 0.66493464 8.7243721e-39
0.65240788 0.013322725 0.66525114 8.7243721e-39
0.64384991 0.025800945 0.66561145 8.7243721e-39
0.63843393 0.036076076 0.66486728 8.8162076e-39
0.64071542 0.033153657 0.66791207 8.8162076e-39
0.45644578 0.049263667 0.66562921 6.3614985e-39
0.4630695 0.049516283 0.66172957 4.4253902e-39
0.63892627 0.040872395 0.66624761 8.8162076e-39
0.64460623 0.045624245 0.66378975 8.7243721e-39
0.44969854 0.053489115 0.66374159 7.4728038e-39
0.45130926 0.054792982 0.66640174 7.5667805e-39
0.64962274 0.051392823 0.6670804 8.7243721e-39
0.6547069 0.055368103 0.66462815 8.7243721e-39
0.66198093 0.057958528 0.66372597 8.7243721e-39
0.45693976 0.062860906 0.66509235 8.3064685e-39
0.46252877 0.067533314 0.66544574 8.3064685e-39
0.47261596 0.062249824 0.6641469 8.3064685e-39
0.66535485 0.063184589 0.66515678 8.7243721e-39
0.67248595 0.067811817 0.66514719 8.7243721e-39
0.46694908 0.070997909 0.66539145 8.3064685e-39
0.47471315 0.076088004 0.66455799 8.3064685e-39
0.48053014 0.07985878 0.66800839 8.3064685e-39
0.67766625 0.070657246 0.66472119 8.7243721e-39
0.68120319 0.0725118 0.66610736 8.7243721e-39
0.48456702 0.082608007 0.66496593 8.4901465e-39
0.49250963 0.087860368 0.66558403 9.2259389e-39
0.49741608 0.091020986 0.66390097 9.0422623e-39
0.50507367 0.095777772 0.66500294 8.4901451e-39
0.51540589 0.10215632 0.66528618 9.0422637e-39
0.52475047 0.10736587 0.66429496 8.9500625e-39
0.53443986 0.11252035 0.66516107 8.3983068e-39
0.5437575 0.11748386 0.66447705 8.3064685e-39
0.60933352 0.12942529 0.66458225 1.1048986e-39
0.60718703 0.13508891 0.66479361 2.3945444e-39
0.6058166 0.14499636 0.66492009 8.2043321e-39
0.60741228 0.15167953 0.66386265 1.2077628e-38
0.61175871 0.15488821 0.66427106 1.1801041e-38
0.4321427 0.19264975 0.66744846 1.1706156e-38
0.4451488 0.19645561 0.66459912 1.1706156e-38
0.45254385 0.19158454 0.66496682 1.1983107e-38
0.4619548 0.190873 0.66718775 9.7726247e-39
0.43682906 0.20606463 0.66548949 1.1153e-38
0.44038615 0.20119144 0.66357869 1.1706156e-38
0.42937502 0.21847077 0.66331697 3.0443475e-39
0.43192604 0.21394783 0.6652174 3.2283703e-39
0.4271636 0.22465166 0.66459334 4.3343297e-39
0.42680717 0.23287487 0.66541809 7.8358606e-39
0.43241742 0.23810469 0.66479599 6.3611243e-39
0.43753162 0.24197435 0.66594148 6.8220899e-39
0.44299006 0.24569994 0.66694099 8.9418186e-39
0.62778306 0.25719529 0.66180658 5.5368413e-39
0.63568133 0.26073536 0.66119099 3.3306006e-39
0.45377669 -0.40442151 0.67635381 6.2448278e-39
0.44771332 -0.39400938 0.67575794 6.799791e-39
0.45095003 -0.39932966 0.67451334 6.2448278e-39
0.44306478 -0.38588312 0.6753521 8.5543596e-39
0.4370513 -0.37526521 0.67459786 9.7471491e-39
0.42922097 -0.36132225 0.67568147 1.0391801e-38
0.43201485 -0.3664172 0.67595422 1.0205972e-38
0.4145405 -0.35174635 0.67684788 9.1057341e-39
0.425336 -0.35507187 0.67557985 1.07613e-38
0.41882935 -0.34209004 0.67520225 1.0302835e-38
0.4214153 -0.34698787 0.67481315 1.0858522e-38
0.41501731 -0.33480918 0.67493027 1.0490089e-38
0.40864119 -0.32272089 0.6749835 7.7228151e-39
0.41134918 -0.32783413 0.67492497 1.0215661e-38
0.40447274 -0.31485179 0.67483407 6.2448278e-39
0.39843443 -0.30308133 0.6764468 6.2448278e-39
0.40106291 -0.30842549 0.67500222 6.2448278e-39
0.63673097 -0.30284455 0.67519391 2.3064084e-39
0.39742252 -0.2965053 0.67515612 6.8016015e-39
0.40129897 -0.29172492 0.67354327 6.2448278e-39
0.62711334 -0.29312482 0.67550933 2.8599577e-39
0.63305157 -0.29782021 0.67452556 2.7674005e-39
0.40617162 -0.28611013 0.67492509 7.2593258e-39
0.41107351 -0.28101054 0.67473096 7.0785471e-39
0.61935604 -0.28028697 0.67467177 2.8599577e-39
0.62220848 -0.28525218 0.67486185 2.8599577e-39
0.41624093 -0.27830949 0.6748578 8.7456284e-39
0.42501384 -0.27483752 0.67494875 7.9122692e-39
0.43350646 -0.2715371 0.67494529 7.4487687e-39
0.61627322 -0.2747623 0.67529166 5.7172725e-39
0.43818188 -0.26891223 0.67347801 8.8378227e-39
0.44263947 -0.26705706 0.67556673 8.0041033e-39
0.60756248 -0.26298463 0.67505616 1.1708845e-38
0.61207467 -0.268341 0.67553139 1.1524455e-38
0.59887385 -0.25226441 0.67460907 6.4457543e-39
0.60273731 -0.25694144 0.67535436 9.4014249e-39
0.58892894 -0.24006809 0.67129797 5.9836944e-39
0.59339142 -0.24525148 0.6748423 6.0762487e-39
0.58525336 -0.23465058 0.67493594 5.983693e-39
0.57710558 -0.22426456 0.67468691 5.983693e-39
0.58135867 -0.22924009 0.67680669 5.9836944e-39
0.5668118 -0.21236311 0.67442966 6.1684458e-39
0.57186836 -0.2176159 0.67596465 6.07589e-39
0.55785048 -0.2024242 0.67565024 1.1616649e-38
0.562406 -0.20758879 0.67460746 7.8315741e-39
0.57084864 -0.20013797 0.67491806 1.0693977e-38
0.54893315 -0.19205326 0.67523897 2.8599577e-39
0.55276477 -0.19685553 0.6753484 8.4827518e-39
0.54583687 -0.18520692 0.67500776 2.8599577e-39
0.53984904 -0.17051567 0.67626643 2.8599577e-39
0.5419783 -0.17570408 0.67505753 2.8599577e-39
0.53846723 -0.16553284 0.67501134 2.8599577e-39
0.54123259 -0.16097547 0.6741485 2.8599577e-39
0.54633307 -0.15764634 0.67554355 2.8599577e-39
0.5548926 -0.15320106 0.67501515 2.8599577e-39
0.56131035 -0.15052129 0.67645222 2.8599577e-39
0.56525218 -0.14784813 0.67803025 2.9517932e-39
0.57724488 -0.14982574 0.67035043 1.2907392e-38
0.44704172 -0.072082736 0.67373586 7.1019586e-39
0.45217115 -0.074414439 0.67587209 7.0104874e-39
0.43684962 -0.063274741 0.67501456 5.8083247e-39
0.44149366 -0.068837784 0.67526644 6.3618614e-39
0.70792651 -0.063111112 0.67357135 6.8880223e-39
0.71230197 -0.067021012 0.67524248 7.8222232e-39
0.424779 -0.055552252 0.67559993 5.9959838e-39
0.43423274 -0.054167286 0.67466569 7.4689306e-39
0.69808668 -0.05226586 0.67385554 6.4284847e-39
0.70301497 -0.057718869 0.67416352 6.5203202e-39
0.4369891 -0.04556974 0.67493749 7.2874358e-39
0.44135758 -0.041180063 0.67549115 6.4587612e-39
0.68979686 -0.040874664 0.67632204 8.7243721e-39
0.69305176 -0.045427456 0.67484856 8.5407011e-39
0.44657004 -0.03740586 0.67495811 5.8126785e-39
0.4539364 -0.032521691 0.67401004 2.8595639e-39
0.6858328 -0.035166968 0.6750201 8.7243721e-39
0.45764434 -0.028750984 0.67599213 3.3198176e-39
0.46524233 -0.024279986 0.67495781 4.3368422e-39
0.472855 -0.020310577 0.67447984 6.3665684e-39
0.67766458 -0.023491366 0.67520487 8.7243721e-39
0.68133587 -0.028759995 0.67583036 8.7243721e-39
0.6691528 -0.011293718 0.67464274 8.7243721e-39
0.67275894 -0.016500071 0.67515397 8.7243721e-39
0.66484892 -0.0049715596 0.67472839 8.7243721e-39
0.65723825 0.0062618274 0.67509937 8.7243721e-39
0.66072744 0.0011778949 0.6740945 8.7243721e-39
0.64854848 0.018562756 0.67471892 8.7243721e-39
0.65225583 0.013506936 0.67499638 8.7243721e-39
0.64408255 0.025132921 0.67538011 8.7243721e-39
0.63917565 0.036477037 0.67722261 9.4612169e-39
0.64139229 0.036187794 0.67359227 9.1839097e-39
0.46299013 0.049234141 0.67394084 2.6736733e-39
0.63944405 0.043061689 0.67340332 9.3675807e-39
0.64304024 0.045322984 0.67720884 9.7345626e-39
0.45188081 0.054787826 0.67552078 7.2887741e-39
0.64789689 0.050972167 0.67512488 8.8162076e-39
0.65604198 0.056551166 0.67539442 8.7247323e-39
0.4568859 0.06261798 0.67610627 8.3064685e-39
0.46277419 0.067911722 0.67524105 8.3064685e-39
0.66587186 0.063788809 0.67490226 8.7243721e-39
0.67398268 0.068458125 0.67384279 8.7250924e-39
0.46777105 0.071509726 0.67440748 8.3064685e-39
0.47429407 0.075647108 0.67491448 8.3064685e-39
0.4805178 0.077964284 0.67291689 7.0136039e-39
0.67813665 0.070427209 0.67197078 8.7243721e-39
0.68272501 0.07158906 0.67458856 9.3740631e-39
0.48527181 0.08289405 0.67527229 8.4901479e-39
0.49265304 0.087703735 0.67492348 9.3177814e-39
0.49826455 0.091425374 0.67520487 8.9500625e-39
0.5044741 0.095463514 0.67496008 8.3064699e-39
0.51081145 0.09950424 0.67478305 8.3983054e-39
0.51593393 0.10268152 0.67569685 9.409977e-39
0.52421129 0.10736401 0.6752041 8.6741846e-39
0.52957284 0.11022477 0.67334354 8.3983054e-39
0.53592467 0.11344595 0.674959 8.3064699e-39
0.54190809 0.11689406 0.67393833 8.3064685e-39
0.60692847 0.13539746 0.67465979 6.0611568e-39
0.60589164 0.14508489 0.67482001 1.0134321e-38
0.60701936 0.15162139 0.67437607 1.1708845e-38
0.61212063 0.1552223 0.67547703 1.1801041e-38
0.44437778 0.19607109 0.67503655 1.1706515e-38
0.45296091 0.19222447 0.67424446 1.3181639e-38
0.43705633 0.20556296 0.67541403 1.1613963e-38
0.4403573 0.20055282 0.67401141 1.179835e-38
0.42888039 0.21800855 0.67572832 7.8376459e-39
0.43210325 0.21319771 0.67511183 7.0082692e-39
0.42660522 0.22508907 0.6749689 7.9305604e-39
0.42693916 0.23214987 0.67499483 8.0206078e-39
0.43287617 0.23759587 0.67354202 6.3614887e-39
0.43860373 0.24196796 0.67424637 7.0986739e-39
0.44218716 0.24456157 0.67456549 8.2968248e-39
0.43842083 -0.4019644 0.68705368 6.2448278e-39
0.45344454 -0.40501821 0.68550229 6.2448278e-39
0.44685385 -0.39423165 0.68603671 6.2451879e-39
0.43910393 -0.38071933 0.68583709 7.1682106e-39
0.44247788 -0.38645032 0.68454564 6.7990721e-39
0.43569604 -0.37457812 0.68528622 9.2868954e-39
0.42853713 -0.36154628 0.68486309 1.0852416e-38
0.43140501 -0.36674175 0.68429899 1.0574393e-38
0.425109 -0.35522088 0.68533885 1.0946048e-38
0.41876611 -0.34310287 0.68552935 1.1137615e-38
0.42180714 -0.34876615 0.68430787 1.1135823e-38
0.41431272 -0.33447587 0.68450111 1.0952857e-38
0.40824062 -0.32319722 0.68593615 7.5348351e-39
0.4111045 -0.32837379 0.68414563 9.2879716e-39
0.40366074 -0.31452343 0.6848045 6.5214118e-39
0.41442648 -0.31990492 0.68871486 6.3377422e-39
0.39943409 -0.30213287 0.68378121 6.2448278e-39
0.40051132 -0.3060202 0.68551934 6.1529923e-39
0.62499207 -0.3008807 0.68049556 2.3064084e-39
0.63667661 -0.30067191 0.68162805 2.9521561e-39
0.64089316 -0.30335721 0.68197966 1.8450575e-39
0.39837173 -0.29471231 0.68459922 6.2448278e-39
0.62672663 -0.29246882 0.68527418 2.8599591e-39
0.63215446 -0.29723725 0.68418074 3.0443559e-39
0.3987568 -0.28834757 0.68814659 6.2448278e-39
0.4052043 -0.28412715 0.68511343 7.1667728e-39
0.41070023 -0.28058153 0.6851238 6.5232181e-39
0.61984307 -0.28075808 0.68430197 2.8599577e-39
0.6227597 -0.28584772 0.68544483 2.8599577e-39
0.41569397 -0.27792847 0.68560708 8.0037432e-39
0.42469794 -0.27394813 0.68566769 7.8193505e-39
0.43326309 -0.27110729 0.6849131 6.7086884e-39
0.61691403 -0.27506196 0.68548 5.8094667e-39
0.43812275 -0.26938358 0.68533838 7.1718273e-39
0.44396853 -0.26765725 0.68542051 6.708687e-39
0.6080665 -0.26215601 0.68623221 1.1801041e-38
0.61194718 -0.26718536 0.68459004 1.1708845e-38
0.59920949 -0.25114056 0.68441057 1.1247505e-38
0.6032089 -0.256134 0.68489045 1.1616289e-38
0.59444588 -0.24505794 0.68504322 1.0047157e-38
0.58675498 -0.23501876 0.68500268 8.939365e-39
0.60005581 -0.23970672 0.68380821 5.8918589e-39
0.57774967 -0.22314149 0.68470764 8.8468092e-39
0.58179319 -0.22834603 0.68555182 9.3085104e-39
0.56815523 -0.21166298 0.68400162 1.0047157e-38
0.57270604 -0.21657847 0.68530911 9.862766e-39
0.55887836 -0.2014811 0.68523318 1.1616651e-38
0.56337738 -0.20636012 0.68497682 1.1247505e-38
0.53706229 -0.19002853 0.68882221 2.7878833e-39
0.54966307 -0.19113101 0.68256807 2.8599577e-39
0.5533219 -0.19536491 0.68532938 7.0998328e-39
0.54618186 -0.18506375 0.68617469 2.8599577e-39
0.53901374 -0.17288673 0.68667746 2.8599605e-39
0.54134828 -0.17677464 0.68800026 2.8599605e-39
0.5380795 -0.16526115 0.68555635 2.8599577e-39
0.54090536 -0.16055617 0.68538392 2.8599577e-39
0.54526889 -0.15755916 0.68606108 2.8599577e-39
0.55500752 -0.1525099 0.68436217 2.8599577e-39
0.55965185 -0.14969094 0.68877649 2.8599577e-39
0.56554389 -0.14864025 0.68511993 2.8599577e-39
0.57391751 -0.14701019 0.68478155 3.0439874e-39
0.44588602 -0.071394451 0.68402576 6.364032e-39
0.45352757 -0.074476361 0.6809932 7.2881575e-39
0.43756443 -0.063699603 0.6847946 7.0068679e-39
0.44144255 -0.068379551 0.68563408 6.5462499e-39
0.70673954 -0.063258789 0.68633372 8.6516223e-39
0.71189171 -0.067980006 0.68427086 9.5829435e-39
0.43417972 -0.055227853 0.68518275 7.2852624e-39
0.69846779 -0.053297326 0.68516594 9.0114015e-39
0.70238197 -0.058058146 0.68570572 7.6360313e-39
0.43748084 -0.046451654 0.68486238 6.6424322e-39
0.44145405 -0.041341908 0.68534744 7.2874372e-39
0.68927413 -0.04049078 0.68447989 9.3769442e-39
0.69308054 -0.045940123 0.68511325 9.4705804e-39
0.44645822 -0.037616421 0.68485755 7.1026873e-39
0.45329186 -0.032815985 0.68461537 3.6875141e-39
0.68543696 -0.035039749 0.68466467 9.2851087e-39
0.43961349 -0.029607022 0.68532777 1.0786889e-38
0.45866293 -0.028934108 0.68525213 3.0421517e-39
0.46484494 -0.024779342 0.68504345 4.8885726e-39
0.47171608 -0.020963591 0.68446642 8.024638e-39
0.67729199 -0.023461495 0.68504769 6.1584209e-39
0.6810593 -0.028842267 0.68488902 7.2622335e-39
0.47574914 -0.019021966 0.68621397 8.1164734e-39
0.66866016 -0.011053062 0.68425113 6.3417275e-39
0.67232859 -0.016336111 0.68522984 5.7918048e-39
0.66445607 -0.0050097015 0.68513411 5.5170228e-39
0.65738863 0.0056817271 0.6848461 9.9384025e-39
0.66253692 0.0010126624 0.68358648 7.9987083e-39
0.64857262 0.018587839 0.68486053 1.0217147e-38
0.65219069 0.013444218 0.68468881 1.0123513e-38
0.64366835 0.025392147 0.68521857 1.040406e-38
0.63882405 0.033963546 0.68536538 1.059061e-38
0.64130551 0.036707614 0.68488431 1.0584489e-38
0.45636392 0.048711684 0.68959844 5.7161291e-39
0.64590931 0.045466818 0.68414485 1.0393976e-38
0.44992888 0.051630393 0.68147337 5.8083247e-39
0.452503 0.054075763 0.6852482 6.9182119e-39
0.64929903 0.050629415 0.68279886 9.7446463e-39
0.65478915 0.055170536 0.68535227 9.1133221e-39
0.45760983 0.062063478 0.68477583 8.3064685e-39
0.46303242 0.067237511 0.68441552 8.3064685e-39
0.66570234 0.063475579 0.68524808 8.9307316e-39
0.67279494 0.068685293 0.6867919 1.0777164e-38
0.46861097 0.071777843 0.68400329 8.3064685e-39
0.47574404 0.076616541 0.68439054 8.3064685e-39
0.67678738 0.07154794 0.68863583 1.1523369e-38
0.4855547 0.083042681 0.68476039 8.5823463e-39
0.49269399 0.08789596 0.68527198 9.5018209e-39
0.49750465 0.09108641 0.68512303 8.3983068e-39
0.50496131 0.09580902 0.6852634 8.3064685e-39
0.5100202 0.098973945 0.68240041 8.3983054e-39
0.5154686 0.10238437 0.68506598 8.4901479e-39
0.52410889 0.10745186 0.68513072 8.3064685e-39
0.53449756 0.11314464 0.68574679 8.3064685e-39
0.54313791 0.11724854 0.68537378 1.0152151e-38
0.60710531 0.13568878 0.68497419 6.2451893e-39
0.60548186 0.14493927 0.68535054 1.0690014e-38
0.60756582 0.15189864 0.68429261 1.1801041e-38
0.6128692 0.15536062 0.68604696 1.1801041e-38
0.45461881 0.18992084 0.6897366 1.1983097e-38
0.44514558 0.19566318 0.68512177 1.2167127e-38
0.45216301 0.19064093 0.68709928 1.2075292e-38
0.43743736 0.20557512 0.68514365 1.1706515e-38
0.44051018 0.20076422 0.68458873 1.179835e-38
0.4517585 0.2056129 0.68407899 1.1982741e-38
0.4289867 0.21818589 0.68432647 5.0861991e-39
0.43241796 0.21306047 0.68463254 8.1203158e-39
0.426263 0.22423999 0.68481696 7.2902286e-39
0.42817765 0.23244388 0.6844455 6.9142995e-39
0.43258119 0.23780496 0.68538666 6.545517e-39
0.43697023 0.24114054 0.68933284 6.7298984e-39
0.44417581 0.2457649 0.68415284 9.4949826e-39
0.45849568 -0.41223621 0.6955753 6.2448278e-39
0.46083879 -0.41577816 0.69556558 6.2448278e-39
0.45362845 -0.40493479 0.69473553 6.2448278e-39
0.43852463 -0.39965746 0.69635975 6.7065192e-39
0.44666094 -0.39453065 0.69420719 6.5221307e-39
0.45023078 -0.39967662 0.69662648 6.2448292e-39
0.43967459 -0.38300908 0.69405687 8.4585766e-39
0.44197652 -0.38713861 0.6948874 7.7220962e-39
0.43528229 -0.3754636 0.69585109 1.0021581e-38
0.42847726 -0.36331674 0.69547015 1.0852416e-38
0.43150127 -0.36854175 0.69438553 1.0482197e-38
0.42398822 -0.35488039 0.69489121 1.1039679e-38
0.41756058 -0.34345251 0.69711411 1.1138329e-38
0.4201673 -0.3474609 0.69501835 1.113726e-38
0.41406518 -0.33541894 0.69433475 1.0674479e-38
0.40774089 -0.32326645 0.694691 8.9173982e-39
0.41045609 -0.32860884 0.6958937 1.030032e-38
0.40355447 -0.31536195 0.69441247 7.1664169e-39
0.39962512 -0.30348778 0.69584 6.2448278e-39
0.40032569 -0.30776152 0.69416511 6.1529923e-39
0.64072412 -0.30365348 0.69472277 2.8599577e-39
0.39851037 -0.29483122 0.69412434 6.2448278e-39
0.62766826 -0.29213089 0.69479167 2.8599577e-39
0.63262641 -0.29732063 0.6961813 2.8599577e-39
0.39818794 -0.28789622 0.69509757 6.3381024e-39
0.40467742 -0.28428081 0.69530261 7.2596873e-39
0.41094431 -0.28052071 0.69460917 7.541686e-39
0.62358367 -0.28504407 0.69509089 2.8599577e-39
