# .PCD v0.7 - Point Cloud Data file format
VERSION 0.7
FIELDS x y z rgb
SIZE 4 4 4 4
TYPE F F F F
COUNT 1 1 1 1
WIDTH 986
HEIGHT 1
VIEWPOINT 0 0 0 1 0 0 0
POINTS 986
DATA ascii
0.30733961 -0.48142603 0.62026191 1.1155671e-38
0.34966442 -0.47802603 0.62034237 1.1063476e-38
0.54925442 -0.44608936 0.62033594 1.097128e-38
0.71865439 -0.42925721 0.62206566 1.1063476e-38
0.39457205 -0.4190942 0.62166691 1.1155671e-38
0.85885257 -0.41591567 0.62032664 1.1063476e-38
0.47804788 -0.34242323 0.62234819 1.097128e-38
0.46774146 -0.3344315 0.62223792 1.0879084e-38
0.51913387 -0.32437092 0.62263966 4.0581211e-39
0.52093345 -0.32831788 0.62562817 2.2142071e-39
0.51881748 -0.31541595 0.62405092 3.689347e-39
0.5189296 -0.30451119 0.62599224 2.9521519e-39
0.52006686 -0.30134922 0.62184662 3.2287346e-39
0.51956272 -0.2966767 0.62717986 2.8599577e-39
0.52048194 -0.29414937 0.62427604 3.3205701e-39
0.45071405 -0.28441942 0.622666 1.0879084e-38
0.52117467 -0.28536353 0.6258266 3.0439874e-39
0.52250105 -0.27540228 0.62596053 3.3205701e-39
0.52406847 -0.26471797 0.62531435 3.5971528e-39
0.52559465 -0.25461638 0.6255278 4.5190993e-39
0.52697057 -0.24507692 0.62539989 4.9797117e-39
0.5281961 -0.23505406 0.62560034 6.4544648e-39
0.52917045 -0.22635187 0.62610489 6.9157975e-39
0.53065062 -0.22332413 0.6221323 5.2562789e-39
0.52977234 -0.21933372 0.62809736 9.6809237e-39
0.53075379 -0.21486312 0.6265884 8.390552e-39
0.53188592 -0.20447762 0.62638223 6.4548207e-39
0.53332847 -0.19461855 0.6254102 3.228359e-39
0.53525633 -0.18491694 0.62498009 2.951768e-39
0.53802294 -0.17489609 0.6252529 4.3235102e-39
0.53984571 -0.16949286 0.62560886 5.6999399e-39
0.54184407 -0.16445294 0.62501913 5.7928571e-39
0.55605394 -0.16113725 0.62274712 2.0294571e-39
0.56352717 -0.16302226 0.62317663 2.306414e-39
0.57145262 -0.16494118 0.62144184 2.0298215e-39
0.54532319 -0.15895033 0.62290931 4.4203862e-39
0.55279386 -0.15951604 0.62072092 1.7528618e-39
0.5540086 -0.10775179 0.62110645 1.0879084e-38
0.5161317 -0.082785532 0.62194556 8.9123647e-39
0.52962989 -0.080780439 0.62737471 1.1708842e-38
0.5308845 -0.081841737 0.62553746 1.1708842e-38
0.51896191 -0.07042782 0.62491274 8.9429761e-39
0.52428299 -0.07564424 0.62543637 1.0418103e-38
0.46717361 -0.060731985 0.62137169 1.0879084e-38
0.5088172 -0.060098298 0.62474567 8.9429761e-39
0.51390713 -0.065203749 0.62547624 8.9429761e-39
0.50459445 -0.054757982 0.62577385 1.0510302e-38
0.49792308 -0.042831577 0.62657249 1.1616285e-38
0.50091314 -0.048025437 0.62428749 1.2077266e-38
0.3434301 -0.033239421 0.62169302 1.0786889e-38
0.49763426 -0.036622439 0.62629962 1.1524452e-38
0.50206137 -0.032529138 0.62381542 1.1524091e-38
0.74525672 -0.035843741 0.62100911 1.0879084e-38
0.8281095 -0.03743498 0.62086588 1.0879084e-38
0.50713336 -0.027089801 0.62550247 1.1432254e-38
0.51258582 -0.022128109 0.62493551 1.1431894e-38
0.51793849 -0.017545074 0.62503862 1.1524089e-38
0.52323353 -0.013008431 0.62473524 1.0138626e-38
0.78335249 -0.016375743 0.62113482 1.0879084e-38
0.52804703 -0.0087569999 0.62548941 7.5520865e-39
0.53456581 -0.0032252758 0.62522507 7.366975e-39
0.53937745 0.0010456499 0.62628943 6.6279624e-39
0.54452109 0.0056761657 0.62517184 7.3673351e-39
0.55486321 0.015046312 0.62514234 6.9978281e-39
0.56006783 0.019506915 0.62498873 7.2747779e-39
0.56595689 0.024786664 0.62569851 6.9974666e-39
0.57102919 0.029546084 0.62479705 1.1153864e-38
0.707165 0.028809926 0.62146086 1.0786889e-38
0.57599133 0.034102283 0.62578321 1.1523366e-38
0.58263326 0.038927875 0.62447131 1.142973e-38
0.58821374 0.042110074 0.62492788 1.1337176e-38
0.59222877 0.044173855 0.62427795 1.12439e-38
0.63010502 0.060387164 0.62225443 1.0786889e-38
0.64074898 0.10394618 0.62040657 1.0786889e-38
0.3958993 0.1298985 0.62048513 1.0786889e-38
0.56316906 0.13010401 0.62070829 1.0786889e-38
0.47976917 0.16435011 0.62229776 1.0786889e-38
0.67962325 0.17522573 0.62284112 1.0786889e-38
0.45439008 0.19796096 0.62859493 3.8642655e-39
0.71616817 0.19997284 0.6202479 1.0786889e-38
0.44741747 0.20647024 0.62667018 4.2344913e-39
0.45140943 0.2015906 0.62650299 3.9571828e-39
0.40636301 0.217171 0.62205434 7.7444329e-39
0.43863186 0.21849759 0.62624758 4.2344927e-39
0.44236863 0.21335404 0.62643945 4.2348529e-39
0.43431503 0.22479381 0.62709337 4.0493798e-39
0.42905867 0.23430924 0.62876976 3.77243e-39
0.43091944 0.23071106 0.62588024 4.1419356e-39
0.40548319 0.24927866 0.62257242 1.0694693e-38
0.66530043 0.25928843 0.62235087 1.0694693e-38
0.74100775 0.26946414 0.62130141 1.0694693e-38
0.80359149 0.26068968 0.62207001 1.0694693e-38
0.46541378 0.30400386 0.62176222 1.0694693e-38
0.75414896 0.31828046 0.62002885 1.0694693e-38
0.38526088 0.38964579 0.62247807 1.0602497e-38
0.50294685 0.43948722 0.62239444 1.0602497e-38
0.28600416 0.46930251 0.62037927 1.0602497e-38
0.38295177 0.47066143 0.62184489 1.0694693e-38
0.39072841 0.47951829 0.62219453 1.0602497e-38
0.52362311 -0.33064562 0.63060528 1.3840653e-39
0.51729363 -0.32303831 0.63735485 2.9517974e-39
0.52232617 -0.32983381 0.63805616 2.5833624e-39
0.51657468 -0.31465021 0.63627034 2.8599605e-39
0.51874632 -0.30508009 0.63482523 2.8599577e-39
0.52025801 -0.30048686 0.63832796 2.8599577e-39
0.51982135 -0.29749364 0.63064641 2.8599577e-39
0.52115184 -0.29466429 0.63537145 2.8599577e-39
0.52250963 -0.28497717 0.63493139 2.8599577e-39
0.52390361 -0.27475139 0.63498032 3.1365404e-39
0.52513683 -0.26509988 0.6348629 7.1923858e-39
0.52654976 -0.25512365 0.6350053 1.1524457e-38
0.52792561 -0.24472578 0.63532102 1.1616651e-38
0.52869302 -0.2352871 0.63501745 1.1708845e-38
0.52953339 -0.22546013 0.63423502 1.1708845e-38
0.53007042 -0.2207939 0.63645673 1.1801041e-38
0.52999341 -0.21911623 0.63241881 1.1801041e-38
0.53073967 -0.21469356 0.63571632 1.1801041e-38
0.53200042 -0.20511745 0.63493788 1.1708845e-38
0.5336327 -0.19507405 0.63505465 7.7451952e-39
0.53596455 -0.18506207 0.63508677 2.8599577e-39
0.53845185 -0.17545548 0.63497728 3.0425441e-39
0.54030567 -0.17061549 0.63697475 2.9510701e-39
0.54251873 -0.16475114 0.63522553 5.0549544e-39
0.54440987 -0.15956914 0.63531148 6.2448278e-39
0.52925026 -0.080484912 0.63071966 1.5212275e-38
0.53286934 -0.081628896 0.63182509 1.5211916e-38
0.50752234 -0.073140286 0.63544762 9.2843885e-39
0.51947981 -0.071421199 0.63393229 8.942616e-39
0.52496976 -0.07607729 0.63355285 1.1984349e-38
0.50970995 -0.061021764 0.63600409 8.9422558e-39
0.5142408 -0.065880008 0.63494951 8.9418957e-39
0.50525439 -0.055174079 0.63494849 1.032555e-38
0.4985801 -0.043501873 0.63464558 1.1522649e-38
0.50109112 -0.048222139 0.63516349 1.1616286e-38
0.49724674 -0.03661532 0.63558275 1.1150629e-38
0.50207502 -0.031721637 0.63505328 1.1149549e-38
0.50696146 -0.027283687 0.63498652 1.1057712e-38
0.512757 -0.022023425 0.63508224 1.0410902e-38
0.51748127 -0.018105425 0.63442254 1.0595293e-38
0.52310824 -0.013230497 0.63414258 8.9339587e-39
0.52853841 -0.0085564842 0.63452536 6.3456175e-39
0.53407407 -0.0038411762 0.63483393 6.6204066e-39
0.53865117 0.00011774711 0.63518834 6.8033601e-39
0.54481083 0.0057122158 0.63475662 6.7118833e-39
0.55473024 0.014611386 0.63468599 6.8033601e-39
0.56034273 0.019525375 0.63520741 7.0777904e-39
0.56557995 0.024198202 0.63511282 7.2621816e-39
0.57127428 0.029495483 0.6341266 9.8487222e-39
0.57614499 0.033705231 0.63448036 1.0218228e-38
0.58238006 0.038554855 0.63593203 9.8447635e-39
0.5868848 0.042118829 0.63583231 9.8440446e-39
0.59190375 0.045677654 0.63568866 9.7507686e-39
0.45527974 0.1971931 0.63513738 5.3459032e-39
0.46243262 0.19447911 0.6350255 5.6192335e-39
0.44715673 0.20573464 0.63496339 4.884925e-39
0.4507753 0.20083384 0.63505203 5.0693205e-39
0.43865803 0.21832709 0.6343044 4.6998107e-39
0.4422915 0.21327257 0.63491488 4.9771221e-39
0.43396223 0.22492293 0.6354236 5.0700408e-39
0.44674155 0.22019339 0.63338816 4.6987261e-39
0.4285253 0.23554306 0.6355533 5.1625993e-39
0.43045002 0.23060332 0.63519806 4.8852866e-39
0.44056413 0.23467733 0.63825977 1.0694693e-38
0.42830366 0.24261615 0.63581711 5.4395464e-39
0.43143752 0.24767306 0.63776159 5.7172179e-39
0.51818448 -0.32220978 0.64410377 3.2287472e-39
0.52050978 -0.32701394 0.64253861 2.7674005e-39
0.51771957 -0.31409746 0.6453321 2.8599605e-39
0.51920968 -0.30709851 0.6439774 2.8599577e-39
0.52074599 -0.30288008 0.64599758 2.8599577e-39
0.52257568 -0.29497507 0.6449734 2.8599577e-39
0.52418816 -0.28497517 0.64499408 2.8599577e-39
0.5251863 -0.27496901 0.6449604 4.8875203e-39
0.52643883 -0.2649951 0.64488226 1.1616651e-38
0.52782446 -0.25517806 0.645114 1.1708845e-38
0.52915245 -0.2452756 0.6453312 1.1801041e-38
0.5296374 -0.23572169 0.642676 1.1801041e-38
0.53040934 -0.23436187 0.64710945 1.1801041e-38
0.52990484 -0.22715424 0.64082068 1.1801041e-38
0.5307678 -0.2248283 0.64551109 1.1801041e-38
0.53148228 -0.21504477 0.64536327 1.1432262e-38
0.53264832 -0.20489834 0.6447863 1.1801041e-38
0.53457993 -0.19504169 0.64475751 1.1247872e-38
0.53656518 -0.18490978 0.64488733 3.4127657e-39
0.53888065 -0.17694813 0.64478767 2.8599577e-39
0.54077965 -0.17220387 0.64575601 2.8599577e-39
0.54376745 -0.16486585 0.64464563 2.9514316e-39
0.55199653 -0.16132395 0.6425494 3.5053467e-39
0.54393303 -0.15718505 0.64370346 6.630559e-39
0.5296399 -0.080749139 0.64800984 9.0945952e-39
0.53314942 -0.083274312 0.64593643 9.4676993e-39
0.50626969 -0.071937948 0.64517933 1.0879084e-38
0.51846182 -0.070534125 0.64506567 8.7355363e-39
0.52399331 -0.075476378 0.64366043 9.2901506e-39
0.50973845 -0.06048777 0.64423561 8.7355363e-39
0.51405448 -0.065492295 0.64470249 8.7344559e-39
0.50573432 -0.05499712 0.64412135 8.9156059e-39
0.49873537 -0.043322969 0.64497006 9.1921928e-39
0.50162286 -0.047185984 0.642524 9.1918327e-39
0.49818116 -0.037293635 0.64538807 9.0971161e-39
0.50255406 -0.032461759 0.64582413 8.9084033e-39
0.50734478 -0.027466573 0.64537865 7.8060172e-39
0.51231402 -0.02281668 0.6458984 6.6121557e-39
0.51741171 -0.018306272 0.6447832 6.3370094e-39
0.52351511 -0.012958443 0.6445564 6.7958267e-39
0.52874911 -0.0083102845 0.64520234 8.4488656e-39
0.53380704 -0.0038580787 0.6451984 8.7243721e-39
0.53849548 0.00028465191 0.64498967 8.7243721e-39
0.54494679 0.0061293771 0.64500052 8.7243721e-39
0.54729497 0.010876492 0.64775574 8.7243721e-39
0.55483127 0.015033252 0.6451562 8.7243721e-39
0.56004858 0.019539408 0.64243495 8.7243721e-39
0.56580758 0.024746548 0.64507151 8.7243721e-39
0.57105225 0.029431831 0.645293 8.7243721e-39
0.5659129 0.031217964 0.64636612 8.7243721e-39
0.57550931 0.033591796 0.64476782 9.1878712e-39
0.58151227 0.038641114 0.64641905 8.7250924e-39
0.58686209 0.042894404 0.64623791 8.9109242e-39
0.59122705 0.046323314 0.64602196 9.0038401e-39
0.45567551 0.19775897 0.64333743 6.5509596e-39
0.46148223 0.19477236 0.6447593 7.1959633e-39
0.44737074 0.20593609 0.64462668 6.1821743e-39
0.4510597 0.2010455 0.64630491 6.2743727e-39
0.43889368 0.21826345 0.64485455 6.1821757e-39
0.44247189 0.21321119 0.64539629 6.1821757e-39
0.45013645 0.21856073 0.64277172 5.2529845e-39
0.43414748 0.22487584 0.64508802 6.1821757e-39
0.42851353 0.23538578 0.64491528 6.1821757e-39
0.43025705 0.23069718 0.64697582 6.1821757e-39
0.4288891 0.2430664 0.64386636 6.1818128e-39
0.43123081 0.24723034 0.645024 6.5476946e-39
0.43462902 0.25123224 0.64565527 6.6388056e-39
0.51831412 -0.32378218 0.65267968 3.0443573e-39
0.52091837 -0.32448798 0.65668738 3.0439944e-39
0.51881844 -0.31611416 0.65135074 3.5975437e-39
0.52127349 -0.31474078 0.65512836 3.2287528e-39
0.51945102 -0.30983984 0.65043586 2.8599577e-39
0.52173078 -0.305199 0.65427935 3.136553e-39
0.52377135 -0.29506677 0.65501148 2.8599577e-39
0.52530849 -0.28473738 0.65516239 2.8599577e-39
0.533243 -0.28684449 0.65291417 2.8599577e-39
0.52631462 -0.27526101 0.65494353 7.7451938e-39
0.52753025 -0.26514712 0.65520918 1.0047879e-38
0.52882886 -0.25484145 0.65473992 9.5876224e-39
0.53002626 -0.25041354 0.6595521 8.0188534e-39
0.52962255 -0.24760631 0.65328145 9.4025109e-39
0.53037244 -0.24392456 0.65609717 8.5723887e-39
0.53128934 -0.2349029 0.65493155 8.9411698e-39
0.53253609 -0.22506475 0.65520483 8.9408097e-39
0.53304803 -0.21498369 0.65556812 9.6787349e-39
0.53359663 -0.20518635 0.65481865 1.1524094e-38
0.53494167 -0.19476976 0.65525204 8.7593359e-39
0.53707737 -0.18485637 0.65496051 2.8599577e-39
0.53928679 -0.17789511 0.65511304 2.8599577e-39
0.54095387 -0.17300567 0.65504122 2.8599577e-39
0.54416341 -0.16462041 0.65483105 2.8599577e-39
0.53978884 -0.15402107 0.65216476 2.8599591e-39
0.54901868 -0.15899748 0.65602672 2.8599577e-39
0.55233443 -0.15704267 0.65820247 2.8599577e-39
0.52998042 -0.088076904 0.65567327 1.0879084e-38
0.5334664 -0.082386293 0.65161425 9.2793466e-39
0.51911873 -0.071438283 0.65495318 8.7243721e-39
0.52348429 -0.07560651 0.65418869 8.7243721e-39
0.50994152 -0.06119258 0.6575107 8.7243721e-39
0.51402146 -0.065801717 0.65530473 8.7243721e-39
0.5049032 -0.055328809 0.65522593 8.7243721e-39
0.49835104 -0.044396468 0.65525162 9.6618142e-39
0.50560641 -0.044646256 0.65125543 6.6121557e-39
0.49922618 -0.03920687 0.65041107 9.1853503e-39
0.50299782 -0.034805395 0.65416062 7.9896882e-39
0.50807643 -0.027419746 0.65562719 6.5203202e-39
0.51261467 -0.022507571 0.65495723 6.4284847e-39
0.51807952 -0.018036829 0.6540333 6.7958267e-39
0.52391839 -0.012930902 0.65449029 7.7141817e-39
0.52872264 -0.008328638 0.6555928 8.7243721e-39
0.53382009 -0.0034964916 0.65460068 8.7243721e-39
0.53893107 0.0012458679 0.65516019 8.7243721e-39
0.54476285 0.0064833253 0.65531743 8.7243721e-39
0.5551607 0.015708584 0.65487218 8.7243721e-39
0.56475419 0.024164112 0.65511215 8.7243721e-39
0.57057661 0.029373204 0.65528655 8.7243721e-39
0.57593858 0.034176007 0.65489531 8.7243721e-39
0.58142149 0.039034169 0.65453911 8.7243721e-39
0.5864011 0.043392278 0.65493095 8.7243721e-39
0.45511359 0.19681497 0.65572059 7.0112105e-39
0.46502402 0.19454631 0.65474063 7.6536848e-39
0.47044724 0.19524796 0.65947795 5.7161305e-39
0.44747531 0.20639788 0.65479249 6.2743699e-39
0.45135853 0.20107153 0.65451157 6.5495093e-39
0.43910715 0.21841373 0.6548779 6.1821757e-39
0.44256726 0.21362142 0.65501457 6.1821757e-39
0.43444473 0.22479603 0.65466249 6.5505953e-39
0.4290157 0.23651412 0.65338057 6.3665656e-39
0.43078864 0.23246272 0.6557073 6.7349851e-39
0.42842907 0.24290034 0.65530938 6.3658425e-39
0.43176451 0.24822323 0.65625525 5.7175724e-39
0.43544936 0.25148126 0.65405387 6.36186e-39
0.5226168 -0.33046174 0.66464889 3.1365516e-39
0.51962173 -0.32420146 0.66606641 2.2142099e-39
0.52244318 -0.32960325 0.66753209 3.1365516e-39
0.51981306 -0.31617701 0.66486043 2.8599577e-39
0.52013117 -0.31335703 0.66749233 2.8599577e-39
0.51989847 -0.30897579 0.66319561 2.8599577e-39
0.52134579 -0.30426836 0.66552126 2.8599577e-39
0.52411824 -0.29517648 0.66526312 2.8599577e-39
0.52650177 -0.28533041 0.66500407 4.3347122e-39
0.52766293 -0.27475378 0.66467535 1.1155675e-38
0.52882218 -0.26522431 0.66515166 7.186206e-39
0.52960163 -0.25716588 0.66332382 7.0018134e-39
0.53045887 -0.25319952 0.66641784 5.892219e-39
0.5314163 -0.24469632 0.66492081 5.8922176e-39
0.53257442 -0.23510398 0.66509831 5.8922176e-39
0.53369403 -0.22500533 0.66496372 6.2620833e-39
0.53472829 -0.21499786 0.66538137 6.817062e-39
0.53525949 -0.20503955 0.6652807 8.5716642e-39
0.53603739 -0.19525057 0.66505444 1.0971647e-38
0.53811228 -0.18490468 0.6642524 3.1365404e-39
0.53957641 -0.17873634 0.66532308 2.8599577e-39
0.54118764 -0.17366786 0.66521615 2.8599577e-39
0.54463094 -0.16494769 0.66537309 2.8599577e-39
0.54905015 -0.15857688 0.66622353 2.8599577e-39
0.55395472 -0.15706804 0.66363597 2.9521603e-39
0.56238163 -0.15817672 0.66467178 3.1365544e-39
0.52893662 -0.08128944 0.66504276 8.7243721e-39
0.53139108 -0.083688639 0.66559672 8.7243721e-39
0.51899904 -0.071017742 0.66579008 8.7243721e-39
0.52375168 -0.075986318 0.66444951 8.7243721e-39
0.50958067 -0.060689479 0.6647054 8.7243721e-39
0.51412582 -0.065729819 0.6651876 8.7243721e-39
0.50430954 -0.05472571 0.66482586 8.9998786e-39
0.49803731 -0.045024019 0.66441876 9.7363633e-39
0.50049341 -0.046581399 0.66778225 1.0101905e-38
0.49852729 -0.037238501 0.6664716 9.0917141e-39
0.50217503 -0.031496625 0.6669926 5.8774718e-39
0.50661826 -0.027202452 0.66611147 6.7039912e-39
0.51258564 -0.02217464 0.66435361 6.4284847e-39
0.51770526 -0.017678462 0.66498184 7.4386752e-39
0.5233081 -0.012607253 0.66537315 8.7243721e-39
0.52870107 -0.0077345413 0.66480494 8.7243721e-39
0.53371191 -0.0032347613 0.66502643 8.7243721e-39
0.53874791 0.0012992469 0.66526669 8.7243721e-39
0.5445689 0.0065571521 0.66443527 8.7243721e-39
0.54845589 0.010032254 0.66603696 8.7243721e-39
0.55487871 0.01558603 0.66536444 8.7243721e-39
0.56521821 0.024704861 0.664469 8.7243721e-39
0.57024527 0.029317345 0.66493988 8.7243721e-39
0.57555473 0.034158446 0.66540956 8.7243721e-39
0.58147347 0.039212849 0.66631305 8.9080431e-39
0.57990354 0.042067692 0.66347367 8.7247323e-39
0.58655566 0.042964276 0.6651535 8.9998786e-39
0.59288168 0.045552641 0.66771817 9.4590561e-39
0.45601892 0.19672124 0.66496235 7.0112105e-39
0.46089205 0.19404747 0.66791081 8.9458656e-39
0.44745833 0.206211 0.66467845 7.563664e-39
0.45101601 0.20122924 0.66513306 7.0112119e-39
0.4389922 0.21852651 0.66483396 3.2341016e-39
0.44261014 0.21343775 0.66519314 3.5103269e-39
0.43423539 0.22489005 0.66519237 5.7219234e-39
0.42883492 0.23630725 0.6657114 7.1034061e-39
0.43044242 0.23094311 0.66489935 8.1164734e-39
0.42910528 0.24240088 0.66519815 6.1821743e-39
0.43205291 0.24652369 0.66353142 5.2562369e-39
0.43665475 0.25259745 0.66511005 5.9012406e-39
0.51990217 -0.32428372 0.67162275 2.3060468e-39
0.5206151 -0.32388458 0.67618501 2.3986082e-39
0.52033269 -0.31505018 0.67450958 2.8599577e-39
0.52178264 -0.30498272 0.67478341 2.8599577e-39
0.52478224 -0.29487038 0.67491496 2.8599577e-39
0.52732593 -0.28515214 0.67490149 9.9575064e-39
0.52862942 -0.27524287 0.67511946 1.1708845e-38
0.52952719 -0.26615977 0.67340136 7.6464625e-39
0.53037012 -0.26280886 0.67688477 7.3698742e-39
0.53115052 -0.25511995 0.67498505 5.8914988e-39
0.53254187 -0.24538639 0.67489481 5.983693e-39
0.5429092 -0.24356587 0.67205709 1.1708845e-38
0.53406543 -0.23497273 0.67491549 5.8914988e-39
0.53542703 -0.22484493 0.67496967 5.983693e-39
0.53629923 -0.21520594 0.67480862 5.983693e-39
0.53686529 -0.20512158 0.67490035 7.7386582e-39
0.53753197 -0.19482271 0.67541003 1.1708845e-38
0.53838468 -0.18526213 0.67451835 3.9659339e-39
0.54030764 -0.18173297 0.67866492 2.8599577e-39
0.53964913 -0.17911795 0.67134362 2.8599577e-39
0.54236895 -0.17501178 0.67543811 2.8599577e-39
0.54664201 -0.16511777 0.67512769 2.8599577e-39
0.54946947 -0.15878069 0.67510897 2.8599577e-39
0.55045944 -0.15676102 0.67586905 2.8599577e-39
0.52893496 -0.081227154 0.67377907 9.4709391e-39
0.53226608 -0.083829574 0.67485118 9.8454838e-39
0.51908547 -0.071223408 0.67354828 8.8241306e-39
0.52400798 -0.076417238 0.67546582 9.7522091e-39
0.50876772 -0.060116 0.67247558 8.8183684e-39
0.5138185 -0.065600194 0.67516947 8.9210079e-39
0.50426859 -0.054858591 0.67512494 9.474902e-39
0.4969444 -0.044495936 0.67685658 9.6708175e-39
0.49857998 -0.038010627 0.67409164 6.0647441e-39
0.50264353 -0.033300199 0.67414546 6.7958267e-39
0.50774568 -0.027012849 0.67393643 6.2448137e-39
0.51274627 -0.021816902 0.67465067 7.1631687e-39
0.51733297 -0.01708908 0.67576003 8.6325366e-39
0.52277327 -0.01273637 0.67466068 8.7243721e-39
0.52767473 -0.0083671678 0.67464668 8.7243721e-39
0.53359401 -0.0030216323 0.67564362 8.7243721e-39
0.53884321 0.001671427 0.67446953 8.7243721e-39
0.54388678 0.0062143207 0.67474842 8.7243721e-39
0.54880941 0.010652606 0.67640656 8.7243721e-39
0.55488414 0.01586549 0.67470157 8.7243721e-39
0.56471056 0.024414299 0.67466027 8.7243721e-39
0.57161027 0.02832281 0.67550474 8.2651947e-39
0.57520211 0.033983506 0.67523587 8.7243721e-39
0.58061719 0.039068963 0.67644286 8.7243721e-39
0.5832662 0.041522674 0.67829001 8.7243721e-39
0.45587912 0.19691718 0.67516685 7.6562156e-39
0.46416593 0.19412464 0.67342472 7.7466021e-39
0.44751525 0.20638271 0.67519397 6.181817e-39
0.45108688 0.20141858 0.67501801 6.4584011e-39
0.43896672 0.21869497 0.67513108 2.5826197e-39
0.44259807 0.21377724 0.67478335 2.9510379e-39
0.4343555 0.22513701 0.67500705 4.3364835e-39
0.42969772 0.2359782 0.67275411 6.1821757e-39
0.43055004 0.2329797 0.67554814 6.1821757e-39
0.42939171 0.2430582 0.67518806 6.2740098e-39
0.43194532 0.24804826 0.67644995 6.3629446e-39
0.43607205 0.25193921 0.67542589 6.638807e-39
0.52452791 -0.33061901 0.68540555 1.3837052e-39
0.52285796 -0.3247003 0.68423855 2.2142099e-39
0.52095127 -0.31501347 0.68425453 2.8599577e-39
0.52190256 -0.30512753 0.68519104 2.8599577e-39
0.52497721 -0.29513606 0.68494493 2.8599577e-39
0.52795881 -0.28504917 0.68502831 1.0602869e-38
0.52941644 -0.27567077 0.68483996 1.1801041e-38
0.53009856 -0.27102372 0.68615729 1.1801041e-38
0.52998626 -0.2692095 0.68054658 1.1708845e-38
0.53083909 -0.2650685 0.68548691 1.1708845e-38
0.53210598 -0.25484383 0.68479091 1.0324104e-38
0.5335924 -0.24478573 0.68507671 9.2163134e-39
0.53505123 -0.23525219 0.68494439 8.8471693e-39
0.53658038 -0.22532175 0.68496585 9.1241163e-39
0.54817492 -0.22946073 0.68319249 5.9844146e-39
0.53786516 -0.21468613 0.68508214 1.0047157e-38
0.53832918 -0.20500165 0.68463314 1.1524094e-38
0.53887051 -0.19537197 0.6849981 1.1063483e-38
0.53935575 -0.18687481 0.68410337 4.5191007e-39
0.54045367 -0.18273672 0.68663406 2.8599577e-39
0.54222888 -0.17517973 0.68582505 2.8599577e-39
0.54532331 -0.16498196 0.6868068 2.8599577e-39
0.5487057 -0.15858322 0.68494737 2.8599577e-39
0.55393761 -0.15657303 0.68620569 2.9521575e-39
0.52877426 -0.081011176 0.68628329 1.2722633e-38
0.53314471 -0.083746813 0.6865316 1.3921539e-38
0.51827544 -0.071277782 0.68527675 8.9418957e-39
0.52355504 -0.076223001 0.68476576 1.0878003e-38
0.50899154 -0.060811929 0.68512738 8.9418957e-39
0.5132069 -0.065660179 0.68564814 8.9422558e-39
0.50444901 -0.055223603 0.68526554 1.0600697e-38
0.49748084 -0.044462513 0.68377733 1.1523731e-38
0.50077623 -0.048621397 0.68564409 1.1616286e-38
0.49804699 -0.03696309 0.68655068 8.3836758e-39
0.50248212 -0.032022096 0.68608397 8.9264085e-39
0.50754589 -0.026554827 0.685242 8.0919675e-39
0.5123952 -0.021761032 0.68446863 9.1911124e-39
0.51700568 -0.017579837 0.68589145 9.657131e-39
0.52255934 -0.012617993 0.68425345 9.2847472e-39
0.52749807 -0.0081074266 0.68520045 9.4727412e-39
0.53339434 -0.0028333655 0.68492204 6.8019812e-39
0.53851509 0.0017255654 0.68446618 6.3417289e-39
0.54362333 0.0063494612 0.68537116 5.7003294e-39
0.54881364 0.010991438 0.68494982 5.7918048e-39
0.55507755 0.016468674 0.68448073 6.5286397e-39
0.56512493 0.025020486 0.68543088 1.0217509e-38
0.57001191 0.029206337 0.68457866 1.0122792e-38
0.57562011 0.034337241 0.68477941 1.0216789e-38
0.58053601 0.038950332 0.68546516 1.0495895e-38
0.58558476 0.043127052 0.68533057 1.0589891e-38
0.45616046 0.19761075 0.68481654 6.8271836e-39
0.46252239 0.19425802 0.68520355 7.8398852e-39
0.44738242 0.20675492 0.68484348 7.1023285e-39
0.45122167 0.20148307 0.68510056 7.3796329e-39
0.43901238 0.21853475 0.68519258 2.8577646e-39
0.44250691 0.21369432 0.68492019 3.3183757e-39
0.43480223 0.22483173 0.68477803 4.9804067e-39
0.42874786 0.23634472 0.68513221 8.2083089e-39
0.43102622 0.23163624 0.68504274 8.2086691e-39
0.42877859 0.24157907 0.68378979 6.4569493e-39
0.43203431 0.24633305 0.68513787 6.0859948e-39
0.43505359 0.25078154 0.68634492 6.2700245e-39
0.44026834 0.25428915 0.68393463 7.0079483e-39
0.52201295 -0.32397988 0.69549096 2.6755622e-39
0.52132112 -0.31441584 0.69532114 2.8599577e-39
0.52321094 -0.30483139 0.69472694 2.8599577e-39
0.52596068 -0.29487336 0.69484508 2.8599577e-39
0.52836257 -0.28508091 0.69504631 9.2199483e-39
0.52969444 -0.27764159 0.69272792 1.1801041e-38
0.53067064 -0.27381009 0.69575822 1.1801041e-38
0.53186405 -0.26476258 0.69506562 1.1801041e-38
0.53317446 -0.25520414 0.69494897 1.1801041e-38
0.53460127 -0.24508815 0.69501889 1.1801041e-38
0.53603774 -0.23469746 0.69501156 1.1801041e-38
0.53735858 -0.22485982 0.69503736 1.1801041e-38
0.53865451 -0.21535139 0.69536859 1.1708845e-38
0.53951246 -0.20590003 0.69342101 1.1708845e-38
0.54033726 -0.20306931 0.69746631 8.3905576e-39
0.53978467 -0.19621401 0.69104999 1.0141896e-38
0.54066694 -0.19474383 0.69580632 5.8094667e-39
0.54136848 -0.18491589 0.69503337 2.8599577e-39
0.54372025 -0.17488034 0.69439155 2.8599577e-39
0.54734343 -0.16487674 0.69378626 2.8599577e-39
0.54952204 -0.15942128 0.69456035 2.8599577e-39
0.55161351 -0.15783553 0.69606233 2.8599577e-39
0.56428677 -0.15806088 0.69049835 3.0443545e-39
0.53588313 -0.082478166 0.69399714 1.576545e-38
0.54133087 -0.082355969 0.69845092 1.9729498e-38
0.51870787 -0.071355194 0.69428331 8.9429761e-39
0.5239476 -0.07589522 0.69521654 1.1985429e-38
0.50911349 -0.060228586 0.69388837 8.9429761e-39
0.5141772 -0.0653935 0.69608301 9.5883455e-39
0.5577839 -0.066485859 0.69990015 1.9268522e-38
0.50468379 -0.054833051 0.69527435 1.0694692e-38
0.51359451 -0.059520707 0.69873023 9.7727368e-39
0.497861 -0.044217579 0.69583005 1.1432618e-38
0.50011009 -0.041350216 0.6988886 1.0880165e-38
0.49882758 -0.038560525 0.69366986 8.9418859e-39
0.50262356 -0.034666199 0.69566053 1.1524089e-38
0.50750345 -0.027529523 0.69522876 1.2353491e-38
0.51226878 -0.022716248 0.6959067 1.2538241e-38
0.55162877 -0.022983626 0.69835019 1.5765453e-38
0.51749247 -0.017732508 0.69499516 1.1985068e-38
0.52323389 -0.012748765 0.69585317 1.2077265e-38
0.52790481 -0.0083450843 0.69528472 1.2169822e-38
0.53374898 -0.0033907716 0.69584352 4.8875245e-39
0.53869486 0.0016888687 0.69436634 2.951433e-39
0.5445739 0.0058661825 0.69640243 2.8599563e-39
0.58314347 0.0020136051 0.69745684 4.8894064e-39
0.54882014 0.010730723 0.69343233 2.8595975e-39
0.55521154 0.015221236 0.69580829 4.6113019e-39
0.56098729 0.019249005 0.69837952 1.0602497e-38
0.56555343 0.024085045 0.69536895 1.0786887e-38
0.57114452 0.02835191 0.69699997 1.0233714e-38
0.57601231 0.0334079 0.69448447 1.0509939e-38
0.58238399 0.037967298 0.69589382 9.9571266e-39
0.58702546 0.042057838 0.69394207 1.050994e-38
0.59137535 0.044507619 0.69587505 9.7727354e-39
0.4565137 0.19781207 0.69530451 6.366204e-39
0.46351793 0.19441447 0.6948812 8.2083047e-39
0.47054639 0.19689772 0.69872862 9.2210077e-39
0.44769263 0.20662431 0.69461083 6.0899801e-39
0.451345 0.20178182 0.69546539 6.0899801e-39
0.4389987 0.2190444 0.69442689 5.0747603e-39
0.4426432 0.21391056 0.69542736 5.536093e-39
0.43489313 0.22509786 0.6952678 5.8130372e-39
0.42919967 0.23660354 0.69460082 6.1818128e-39
0.43126002 0.23226769 0.69588619 5.9963383e-39
0.42944735 0.24114816 0.69438773 6.5491491e-39
0.4320682 0.2457206 0.69589382 5.994888e-39
0.43722194 0.25161549 0.69672602 5.7172109e-39
0.44168425 0.25461134 0.69556284 5.8086862e-39
0.4437505 0.26320538 0.6976617 5.7052816e-39
0.52662003 -0.33022279 0.7077176 1.3837052e-39
0.52301943 -0.3245877 0.70550656 2.2142127e-39
0.51944661 -0.31248561 0.70824844 2.2142113e-39
0.52275968 -0.31517297 0.70539826 2.8599577e-39
0.52393502 -0.30506405 0.70493138 2.8599577e-39
0.52648515 -0.29506683 0.7049821 2.8603164e-39
0.52886748 -0.2859742 0.7046659 7.561883e-39
0.53030723 -0.28123525 0.70658207 1.069758e-38
0.53153908 -0.27518073 0.70500726 1.106528e-38
0.52398032 -0.26167226 0.7088235 6.9280196e-39
0.53330678 -0.26516548 0.70491749 1.0880891e-38
0.53463173 -0.2551021 0.70479536 1.1341146e-38
0.53601414 -0.24494384 0.70517468 1.1341146e-38
0.53708488 -0.23521863 0.70479321 1.1617011e-38
0.53828555 -0.22510536 0.7050131 1.1617011e-38
0.53935546 -0.21572064 0.7043466 7.4689699e-39
0.54025817 -0.21189815 0.70818782 2.8603164e-39
0.53989786 -0.20937313 0.70113468 7.0079973e-39
0.54084897 -0.20479107 0.70504373 3.1365404e-39
0.5420208 -0.194969 0.70500237 2.8599577e-39
0.54374337 -0.18484771 0.70525122 2.9521491e-39
0.54558444 -0.17490956 0.70503181 2.8599577e-39
0.54768842 -0.16514882 0.70485622 2.8599577e-39
0.55039942 -0.16094257 0.70730925 2.8599577e-39
0.55489671 -0.15749356 0.7055558 2.8599577e-39
0.56032956 -0.15484934 0.70906484 2.8599577e-39
0.534922 -0.080988012 0.70180255 1.9176691e-38
0.52620661 -0.074344918 0.70269758 1.5673257e-38
0.5344497 -0.074911691 0.70568407 1.6963633e-38
0.54298103 -0.072911911 0.70603466 1.871499e-38
0.55069023 -0.072067074 0.70139158 1.8622791e-38
0.51752597 -0.063585594 0.70223647 1.1801041e-38
0.52455097 -0.065285236 0.70519084 1.4659104e-38
0.53514773 -0.064901881 0.70662427 1.9084491e-38
0.54414213 -0.064388119 0.70693374 1.9268882e-38
0.55424219 -0.064271323 0.70377439 1.696291e-38
0.56153679 -0.061480366 0.70265651 1.6133155e-38
0.50675851 -0.053094067 0.70321673 1.281519e-38
0.51421368 -0.055386316 0.70560569 1.3552758e-38
0.52503312 -0.05482816 0.70640212 1.5212279e-38
0.53533393 -0.055057142 0.70607996 1.7793754e-38
0.54528415 -0.055276949 0.70645988 1.9084491e-38
0.55477399 -0.05423617 0.70688999 1.9545471e-38
0.56404114 -0.054183476 0.70573509 1.6042798e-38
0.57245398 -0.052352101 0.70284557 4.889405e-39
0.49935025 -0.04638809 0.70121062 1.2539686e-38
0.50455284 -0.044986188 0.70502222 1.382862e-38
0.51472753 -0.044645615 0.70642984 1.6503018e-38
0.52494353 -0.04511695 0.70571375 1.4843496e-38
0.53548187 -0.04478471 0.70581716 1.5212279e-38
0.54527313 -0.045083165 0.70580161 1.724022e-38
0.55480278 -0.044954229 0.70634663 1.9361081e-38
0.56454426 -0.045055617 0.70667636 1.7056581e-38
0.5739665 -0.043905634 0.70594287 5.2578288e-39
0.58232534 -0.042584952 0.70328403 4.8894064e-39
0.5061509 -0.036016844 0.70382982 1.281483e-38
0.51526427 -0.03461758 0.70531422 1.8807903e-38
0.5248872 -0.034846187 0.70506811 1.5949844e-38
0.53486067 -0.035101105 0.70535958 1.5027888e-38
0.54532826 -0.035065379 0.70573151 1.5027888e-38
0.55495238 -0.03502506 0.70614499 1.4843882e-38
0.56441498 -0.035053898 0.70636243 6.4563552e-39
0.57468891 -0.034904517 0.70629996 4.8894064e-39
0.58401042 -0.034647681 0.70591366 4.8894064e-39
0.59197116 -0.031794038 0.70459938 8.6683062e-39
0.50857937 -0.028862191 0.70110303 1.3460198e-38
0.51513743 -0.025781602 0.70277601 1.5120079e-38
0.52461833 -0.025014937 0.7041865 1.862315e-38
0.53510821 -0.02486133 0.7055316 1.5857648e-38
0.54502392 -0.025013994 0.70611852 1.4105947e-38
0.55442089 -0.024948947 0.70635504 6.6407352e-39
0.56454289 -0.025013682 0.70635027 4.8894064e-39
0.57478577 -0.025244145 0.70634156 4.8894064e-39
0.5848676 -0.025026014 0.70641929 4.889405e-39
0.59394991 -0.02402571 0.70617801 8.5761049e-39
0.6020261 -0.0228868 0.70357031 1.7423889e-38
0.51883364 -0.019235998 0.70071101 1.3552395e-38
0.52587098 -0.016251998 0.70227474 1.4935691e-38
0.53491992 -0.014909988 0.70447695 1.6503035e-38
0.54486489 -0.014865909 0.70608199 6.0875642e-39
0.55448669 -0.015284819 0.70650315 4.8890463e-39
0.56447113 -0.014822607 0.70643836 4.8894064e-39
0.57448089 -0.014996553 0.70640576 4.8894064e-39
0.58482307 -0.014660988 0.70647162 4.889405e-39
0.59483558 -0.015237345 0.70644325 1.0235256e-38
0.60480976 -0.014506587 0.70495641 1.9545109e-38
0.61423302 -0.013019657 0.70303249 1.9360719e-38
0.62041205 -0.01010561 0.70236534 2.0098646e-38
0.53620368 -0.0063867844 0.70208794 5.0730297e-39
0.54476666 -0.0047928458 0.70463634 4.2436586e-39
0.55443358 -0.005184385 0.70656931 4.8890449e-39
0.56443024 -0.0046356013 0.70648873 4.8894078e-39
0.57477009 -0.0048753242 0.70620239 4.9812433e-39
0.58514625 -0.0051123099 0.70608985 8.2998726e-39
0.59558541 -0.0053479723 0.70611721 1.8623516e-38
0.60572284 -0.0055924417 0.70547128 2.0005717e-38
0.61497557 -0.0044738962 0.70559138 1.9360714e-38
0.62272412 -0.0039666384 0.70514607 1.9268525e-38
0.54664725 0.0031135441 0.7023192 3.6901051e-39
0.55465806 0.0051613571 0.70475537 4.0588988e-39
0.56451714 0.0047629764 0.70638245 4.9812433e-39
0.57497978 0.0046037119 0.70595002 7.6541543e-39
0.58557057 0.0046266271 0.70574731 1.4935698e-38
0.59494013 0.0051113451 0.70563829 1.539667e-38
0.60423493 0.0049851532 0.70594817 1.7885949e-38
0.61432856 0.0056008054 0.70703846 1.908413e-38
0.62156802 0.0040527848 0.70703399 1.9268518e-38
0.55706745 0.011635314 0.70179367 4.6116873e-39
0.5650394 0.01515041 0.70406044 1.0511061e-38
0.57544988 0.014878268 0.70538396 1.6042407e-38
0.58545142 0.014818254 0.70543122 1.5212279e-38
0.59513855 0.015629793 0.70545363 1.4751305e-38
0.60447139 0.015516517 0.70567769 1.5027888e-38
0.6141836 0.014922418 0.70588309 1.6226071e-38
0.62116802 0.014599639 0.70446873 1.6963996e-38
0.56807745 0.022198308 0.70139182 1.0602497e-38
0.57483566 0.025172858 0.70319974 1.5304473e-38
0.58484876 0.025117641 0.70422328 1.5488866e-38
0.59463203 0.025301138 0.70494312 1.5120083e-38
0.6044364 0.024703041 0.70469517 1.5304475e-38
0.61280012 0.023907013 0.70232892 1.4935692e-38
0.57810408 0.031746536 0.70156455 1.2262019e-38
0.58560634 0.03467039 0.70276695 1.6502656e-38
0.59439456 0.034485288 0.70459479 1.6779605e-38
0.603962 0.032012183 0.70298576 1.5949843e-38
0.58841789 0.040464032 0.70097983 1.3091418e-38
0.59172994 0.04130454 0.70201015 1.4750935e-38
0.457306 0.19807073 0.70379388 4.5096335e-39
0.46439829 0.19742762 0.70457554 6.4453802e-39
0.47193831 0.19865632 0.70298481 8.5705782e-39
0.44849858 0.20783697 0.70345354 4.4206917e-39
0.45342034 0.20380066 0.70663291 4.7851358e-39
0.46531925 0.20112699 0.7083813 6.1648164e-39
0.47428736 0.20500395 0.70762563 6.533236e-39
0.43976852 0.21926586 0.70121807 5.0696778e-39
0.44495934 0.21502702 0.70570767 4.4178008e-39
0.45026496 0.2104132 0.70928872 4.6925786e-39
0.46745831 0.21749352 0.70701587 6.5382961e-39
0.47729921 0.21817715 0.70891142 6.7169056e-39
0.43675497 0.22564419 0.70485818 4.2341312e-39
0.44179958 0.22203451 0.70828712 4.7844141e-39
0.47334608 0.22404245 0.70919567 6.5325171e-39
0.42975721 0.23739474 0.70113891 3.77243e-39
0.43306103 0.23464227 0.70606345 4.3248807e-39
0.44426367 0.23081194 0.70143396 5.3513444e-39
0.46915987 0.23261555 0.70835447 6.4410404e-39
0.43421963 0.24472484 0.70597661 4.3259639e-39
0.44056407 0.24924402 0.70928466 3.9564597e-39
0.45855778 0.24938649 0.70667201 6.3488461e-39
0.46224284 0.24470282 0.70781064 6.3488461e-39
0.43830219 0.25118825 0.70185846 4.7920049e-39
0.44479701 0.25292155 0.70583922 4.5103552e-39
0.45276102 0.25214282 0.70797366 6.0737054e-39
0.52892572 -0.33119366 0.71207118 3.043993e-39
0.53322756 -0.33358178 0.71608663 2.9517974e-39
0.52469605 -0.32418141 0.71422166 2.2142113e-39
0.5306294 -0.32954299 0.71959972 2.8599577e-39
0.52421552 -0.31467968 0.715464 2.7799786e-39
0.52536041 -0.30499497 0.71468353 2.7886022e-39
0.52763844 -0.29497463 0.71508616 2.789321e-39
0.52939886 -0.28770265 0.7140708 2.7896798e-39
0.53075212 -0.28311604 0.71543539 2.8822341e-39
0.53241789 -0.27522433 0.71508807 2.8822355e-39
0.53436226 -0.26513451 0.7150268 2.8822355e-39
0.54351538 -0.26324388 0.71267563 4.4280541e-39
0.53587466 -0.2547479 0.71501553 2.974071e-39
0.53708214 -0.24508601 0.7149877 2.974071e-39
0.53828186 -0.23515694 0.71481854 3.433966e-39
0.5393883 -0.22552021 0.71443909 3.5258015e-39
0.54020792 -0.22197607 0.71813238 2.7904e-39
0.53987169 -0.21808939 0.71119487 4.4384041e-39
0.54083091 -0.21459968 0.71558732 2.7896812e-39
0.54188478 -0.20510882 0.71490204 2.786447e-39
0.54304945 -0.19482684 0.71536869 2.7868057e-39
0.5441913 -0.18546404 0.71542054 2.7868057e-39
0.54724759 -0.17524225 0.71445853 2.781775e-39
0.5493558 -0.16758397 0.71386337 2.7763856e-39
0.55142164 -0.16316636 0.71437764 2.7745892e-39
0.56359124 -0.16548878 0.71790898 3.0590906e-39
0.556238 -0.15833172 0.7136125 3.1383522e-39
0.56378257 -0.15680383 0.71362311 3.5979053e-39
0.54866731 -0.03185669 0.71814656 1.0602497e-38
0.53161824 -0.021406975 0.71674407 1.6318625e-38
0.58239985 0.01647415 0.7105459 1.539667e-38
0.4572323 0.2068522 0.71157813 5.6127272e-39
0.46497369 0.20605655 0.71207154 6.2570106e-39
0.47199315 0.20849097 0.71166623 6.4410404e-39
0.44858682 0.21727988 0.71110386 5.0606381e-39
0.45472524 0.21510974 0.71306449 5.8885925e-39
0.46477127 0.21464479 0.71392691 6.4410404e-39
0.47328365 0.21442115 0.71183139 6.6247114e-39
0.4392437 0.22871113 0.71052617 5.1524736e-39
0.44547537 0.22547078 0.71205521 5.7045627e-39
0.45470726 0.22484624 0.71431625 6.1648164e-39
0.46423364 0.22489822 0.71334291 6.6247114e-39
0.47135529 0.22251092 0.71094394 6.6247114e-39
0.42935395 0.23086722 0.7130965 6.6427909e-39
0.43782374 0.23594777 0.71163005 5.1524736e-39
0.44464013 0.23465657 0.71360564 6.0729809e-39
0.45450521 0.23506464 0.71408272 6.4410404e-39
0.46330661 0.23396468 0.71189153 6.6247114e-39
0.43817058 0.2428543 0.7113176 4.9688026e-39
0.44468653 0.24489458 0.71284896 5.796757e-39
0.45363504 0.24382219 0.71306998 6.4406816e-39
0.46050063 0.24177864 0.71126115 6.5328759e-39
0.4476119 0.25044852 0.7108736 5.2446678e-39
0.5357278 -0.33434078 0.72155905 2.8599577e-39
0.52565014 -0.32300788 0.725492 1.7532206e-39
0.52531302 -0.31542939 0.72520494 2.7763828e-39
0.52660006 -0.304905 0.72509068 2.6978443e-39
0.52875066 -0.29560965 0.72471195 2.7904e-39
0.53020853 -0.29163074 0.72828841 2.7904e-39
0.5298757 -0.28923461 0.72136778 2.7904e-39
0.53146631 -0.28468785 0.725191 2.7904e-39
0.53351462 -0.27467623 0.72504658 2.7904e-39
0.53537691 -0.26476923 0.72522163 2.7904e-39
0.53677708 -0.2549569 0.72502035 2.7904e-39
0.52812952 -0.24821387 0.72133136 2.786447e-39
0.53804165 -0.24499531 0.72468752 2.8822355e-39
0.53928035 -0.23542929 0.724648 2.7904e-39
0.54055125 -0.23310825 0.72786677 3.433966e-39
0.53971052 -0.22838609 0.72094244 2.7904e-39
0.54086787 -0.22443861 0.72557539 2.7904e-39
0.54200959 -0.21498573 0.72475284 2.7904e-39
0.54332292 -0.20501788 0.72515178 2.7904e-39
0.54431319 -0.1951233 0.72486448 2.7904e-39
0.54528916 -0.18506609 0.72531939 2.7904e-39
0.54665673 -0.17466538 0.72510856 2.7907602e-39
0.54853302 -0.16702852 0.7235747 2.8836775e-39
0.55273473 -0.16390583 0.72568512 2.9773164e-39
0.55737484 -0.1587024 0.72383177 2.965453e-39
0.56228232 -0.15620238 0.7274909 3.1405088e-39
0.53322607 -0.33276698 0.73685783 2.8617569e-39
0.54035151 -0.33760458 0.73834044 2.9521561e-39
0.52782261 -0.32429042 0.73472077 1.752859e-39
0.52741832 -0.3149845 0.73501748 2.775308e-39
0.52811712 -0.30495197 0.73496163 2.7821352e-39
0.52948666 -0.29725322 0.73485267 2.7824939e-39
0.53053224 -0.29254547 0.73576778 2.7796198e-39
0.5321483 -0.28499585 0.73506922 2.781775e-39
0.53414398 -0.2751424 0.73483568 2.781775e-39
0.54692173 -0.27084553 0.73703825 2.7857281e-39
0.53566259 -0.26515716 0.73532289 2.7806974e-39
0.53718489 -0.25487855 0.73495829 2.7821352e-39
0.53888613 -0.24454156 0.73477876 2.782854e-39
0.53986979 -0.23860991 0.73462421 2.7842904e-39
0.5406965 -0.23354015 0.73528534 2.781775e-39
0.54176962 -0.22513132 0.73485988 2.7839316e-39
0.54303694 -0.21486254 0.7349149 2.7842904e-39
0.54427594 -0.20474249 0.73526633 2.7835729e-39
0.54532516 -0.19531354 0.73489994 2.7850092e-39
0.55518752 -0.19182503 0.73819077 1.3460621e-38
0.54645699 -0.18482906 0.73544389 2.7850092e-39
0.55563819 -0.18434931 0.73696947 2.7875246e-39
0.54790455 -0.17552139 0.73457593 2.7878861e-39
0.55106097 -0.17196301 0.73837692 3.1505674e-39
0.54946685 -0.16950065 0.73312664 2.7904e-39
0.55373174 -0.16481459 0.73650271 3.0666352e-39
0.55718082 -0.15872155 0.73529136 3.1523666e-39
0.56476796 -0.1570235 0.73337275 3.2319884e-39
0.57121599 -0.15663655 0.73361129 3.32131e-39
0.53504497 -0.33331808 0.74867564 2.8599577e-39
0.52860326 -0.32367975 0.74528646 1.8450589e-39
0.53098685 -0.32908335 0.74573374 2.8599577e-39
0.56759524 -0.3272011 0.74900377 5.4425774e-39
0.57199293 -0.32213116 0.74743694 6.3641399e-39
0.52917928 -0.31508401 0.74493569 2.7677621e-39
0.53010505 -0.31071132 0.74855757 2.8599577e-39
0.57414049 -0.31148857 0.74959451 5.7191517e-39
0.52954429 -0.30598339 0.74230283 2.8599577e-39
0.53049451 -0.30401215 0.74715495 2.8599577e-39
0.54588801 -0.30246294 0.74805951 5.1660003e-39
0.57684374 -0.30329382 0.74884319 4.9819439e-39
0.53137195 -0.29491252 0.74493033 2.8599577e-39
0.53311557 -0.28517303 0.7447353 2.8599577e-39
0.53471988 -0.27504954 0.74507546 2.8599577e-39
0.57828248 -0.27998549 0.74989682 5.1660003e-39
0.53592855 -0.2650153 0.74528068 2.8599577e-39
0.58277863 -0.26183376 0.74908692 5.7191615e-39
0.53734559 -0.25512314 0.74518615 2.8599577e-39
0.5820176 -0.25838047 0.74993265 5.62697e-39
0.53899109 -0.24542701 0.74485356 2.8599577e-39
0.54020548 -0.24103466 0.74894917 2.8599577e-39
0.53986186 -0.23940909 0.74243236 2.8599577e-39
0.54090655 -0.23490092 0.74541003 2.8599577e-39
0.54264534 -0.22499278 0.74523056 2.8599577e-39
0.58840948 -0.22830464 0.74973249 5.7191559e-39
0.54408491 -0.21526825 0.74525148 2.8599577e-39
0.59106064 -0.21660632 0.74911296 6.0879272e-39
0.54552966 -0.20529567 0.74530643 2.8599577e-39
0.59334159 -0.20313922 0.74891007 6.0879272e-39
0.54678053 -0.19479871 0.74507076 2.8599577e-39
0.54815143 -0.18526091 0.7450186 2.8599577e-39
0.55034024 -0.18276918 0.74952042 3.0443545e-39
0.54919547 -0.17805165 0.74353981 2.8599591e-39
0.55157679 -0.17404141 0.74599189 2.8603192e-39
0.54945147 -0.16785675 0.74394083 3.5979053e-39
0.55610758 -0.16528624 0.74450433 2.8613968e-39
0.56091154 -0.16100028 0.74404645 2.8599577e-39
0.5598731 -0.15958695 0.74985522 2.8599577e-39
0.56350207 -0.1570109 0.74513173 2.953954e-39
0.53688651 -0.33303216 0.75539798 2.4908024e-39
0.54353523 -0.33323914 0.75867057 3.6893442e-39
0.55600935 -0.33092159 0.75584072 4.7050095e-39
0.56345105 -0.33236319 0.7503112 4.7046494e-39
0.52984279 -0.32235217 0.75117564 1.5684636e-39
0.53465128 -0.32474205 0.75503767 2.6752063e-39
0.5446915 -0.32517579 0.75844479 3.781921e-39
0.55503732 -0.32454669 0.75642586 5.0738019e-39
0.56216073 -0.32394052 0.75407404 5.1660017e-39
0.52993572 -0.3187502 0.75106221 2.8599563e-39
0.5338518 -0.31468225 0.75549024 3.5979067e-39
0.54461884 -0.31480697 0.7589429 4.889405e-39
0.55506939 -0.3152388 0.75785291 5.0738019e-39
0.56382084 -0.31468919 0.75539994 5.1663604e-39
0.57118243 -0.31490576 0.75064766 5.1660003e-39
0.53410476 -0.30515519 0.75605762 3.3213128e-39
0.5441168 -0.30817688 0.75973839 4.7972094e-39
0.55532056 -0.30579144 0.75919992 5.0738019e-39
0.56453514 -0.30460471 0.75670373 5.1660017e-39
0.57219416 -0.30392939 0.75293136 5.1660003e-39
0.53475469 -0.29510918 0.75557566 3.1365544e-39
0.55670315 -0.29518959 0.75927585 5.1660003e-39
0.56476033 -0.29492262 0.75683516 5.1660003e-39
0.57232904 -0.29460722 0.75391489 5.2585547e-39
0.53652722 -0.28508404 0.75518644 3.2287542e-39
0.54094768 -0.28251299 0.7591725 3.5053453e-39
0.55565643 -0.28457206 0.75926489 5.0738033e-39
0.56483769 -0.28502819 0.75670433 5.1660003e-39
0.57316571 -0.28444955 0.75392538 5.1660003e-39
0.53749561 -0.27463737 0.75430149 3.2287528e-39
0.54251838 -0.27383816 0.75900435 3.6901051e-39
0.55476302 -0.27497187 0.75916547 5.0738019e-39
0.56476986 -0.27505222 0.75673985 5.1660003e-39
0.57384026 -0.2745097 0.7538479 5.1660017e-39
0.53793019 -0.26487464 0.75325346 3.0443545e-39
0.54213327 -0.26429036 0.75825113 3.7823021e-39
0.55492586 -0.26516345 0.75902349 5.0738019e-39
0.56459177 -0.26500872 0.75689608 5.0738047e-39
0.57466453 -0.26489705 0.75357699 5.1660017e-39
0.53877234 -0.25537249 0.75264645 2.8599605e-39
0.54312527 -0.25438878 0.7580741 3.6901037e-39
0.55598783 -0.25541425 0.75900286 5.0738047e-39
0.56476992 -0.25522178 0.75686806 5.0738047e-39
0.5741117 -0.25470296 0.75432134 5.1660003e-39
0.58149254 -0.25377014 0.75108874 5.2581959e-39
0.53964156 -0.24689996 0.75142765 2.8599577e-39
0.54341942 -0.24451873 0.75691646 3.5057096e-39
0.55707031 -0.24513109 0.75937682 5.1660003e-39
0.56435275 -0.24549554 0.75744152 5.1659989e-39
0.57450521 -0.24521762 0.75480592 5.1659989e-39
0.58182794 -0.24474263 0.75242621 5.1660017e-39
0.544734 -0.23482384 0.75629896 3.5053453e-39
0.55616254 -0.23571491 0.75982076 4.9816034e-39
0.56544673 -0.23516907 0.7582764 5.1660003e-39
0.57532716 -0.23495297 0.75556171 5.1660003e-39
0.58226717 -0.23514888 0.75330842 5.1660017e-39
0.54627639 -0.22499615 0.75549781 3.3213114e-39
0.55261838 -0.22346982 0.75975341 4.612451e-39
0.56624949 -0.22593103 0.7591387 5.1660003e-39
0.57459033 -0.22503528 0.75697714 5.1660003e-39
0.58361185 -0.22371975 0.75364679 5.1663604e-39
0.54735166 -0.21484289 0.75417566 3.0443559e-39
0.55237186 -0.21575277 0.75922054 4.1514574e-39
0.56875539 -0.21567446 0.75962234 1.0880989e-38
0.57496274 -0.21483664 0.75801528 1.1525992e-38
0.58307618 -0.21459766 0.75503391 7.193923e-39
0.54837984 -0.20494753 0.75383127 2.9521589e-39
0.55167818 -0.20367216 0.75838184 3.4131511e-39
0.57521385 -0.20513646 0.75854403 1.3358619e-38
0.58390015 -0.2050958 0.7557382 1.1430888e-38
0.54892337 -0.19537698 0.75247896 2.8599577e-39
0.55176985 -0.19452114 0.75755161 3.2291129e-39
0.57596415 -0.19543123 0.75851476 1.1049398e-38
0.58486229 -0.19472796 0.75578058 8.4802898e-39
0.5900293 -0.19953285 0.75252444 5.1660017e-39
0.54956561 -0.18844327 0.75043273 2.8599577e-39
0.55278462 -0.18476468 0.75564784 3.0443545e-39
0.57634771 -0.18463998 0.75829452 1.1419624e-38
0.58561671 -0.1849298 0.7550807 1.6219573e-38
0.55515975 -0.17465885 0.75521648 3.0443545e-39
0.56926703 -0.17169428 0.75961179 1.1986595e-38
0.57449251 -0.17506886 0.75829911 1.391722e-38
0.58432269 -0.17523696 0.75485253 1.5113597e-38
0.5900631 -0.17484388 0.7524876 1.9453289e-38
0.55695516 -0.16562052 0.75406623 3.1365558e-39
0.56495988 -0.16446608 0.757254 4.1510973e-39
0.57423347 -0.16467479 0.7573719 4.5195e-39
0.58216602 -0.16589551 0.75546604 5.8106214e-39
0.56535178 -0.15832086 0.75182331 3.6901065e-39
0.57411379 -0.15848581 0.75419158 3.7823035e-39
0.54844844 -0.33291912 0.76025856 2.6751979e-39
0.55042899 -0.33191746 0.76077735 2.3986124e-39
0.54899693 -0.32867819 0.76018441 8.114705e-39
0.55069309 -0.32986969 0.76047194 3.9666808e-39
0.5394218 -0.30220205 0.76012826 4.7972066e-39
0.54522759 -0.30361205 0.76048368 4.7972094e-39
0.55142075 -0.30220306 0.76038259 5.0738019e-39
0.53931445 -0.29553553 0.76025504 4.5202511e-39
0.54437149 -0.29488412 0.76100874 4.7050109e-39
0.55156916 -0.29484919 0.76067364 5.0738047e-39
0.53301203 -0.28805029 0.76757437 4.9816034e-39
0.54496813 -0.28518179 0.76080012 4.7046494e-39
0.55132806 -0.28675395 0.76030183 5.0738019e-39
0.54576015 -0.27539426 0.76044184 4.704648e-39
0.54708076 -0.26544324 0.76090556 4.704648e-39
0.5510565 -0.26042801 0.76005161 5.1660003e-39
0.56196177 -0.2618421 0.7625829 4.7968464e-39
0.54825562 -0.2560927 0.7603699 4.4280513e-39
0.55102783 -0.25440758 0.76040715 4.9816062e-39
0.54909998 -0.24660909 0.76006484 4.7046466e-39
0.55204272 -0.24476697 0.76041621 4.797208e-39
0.53627998 -0.23287328 0.76296538 3.1365544e-39
0.55436832 -0.23486111 0.76034307 4.797208e-39
0.55651695 -0.22587557 0.76019406 4.797208e-39
0.56164014 -0.22439146 0.76032257 4.8894078e-39
0.5567826 -0.21356542 0.76046497 4.796845e-39
0.56336504 -0.2149564 0.76057583 6.9173319e-39
0.55619115 -0.20506081 0.76119536 4.5198882e-39
0.56521749 -0.20515372 0.76074147 1.5120487e-38
0.55649382 -0.19498278 0.76181632 4.2436558e-39
0.56477499 -0.19519548 0.76132637 1.4198542e-38
0.57085729 -0.19376986 0.76008701 1.4100154e-38
0.55728221 -0.18558903 0.76151294 3.8748621e-39
0.56436986 -0.18494986 0.7616992 1.5304877e-38
0.57072204 -0.18617456 0.76023787 1.5670007e-38
0.55884302 -0.17600156 0.76098895 3.5979053e-39
0.56456494 -0.17512248 0.76091576 1.4105983e-38
0.56378281 -0.1691715 0.76014858 4.6124482e-39
