# .PCD v0.7 - Point Cloud Data file format
VERSION 0.7
FIELDS x y z rgb
SIZE 4 4 4 4
TYPE F F F F
COUNT 1 1 1 1
WIDTH 983
HEIGHT 1
VIEWPOINT 0 0 0 1 0 0 0
POINTS 983
DATA ascii
0.31888828 -0.34284505 0.60007161 1.0879084e-38
0.80884707 -0.42294684 0.62039536 1.1063476e-38
0.36050755 -0.40162194 0.62156737 1.097128e-38
0.54543364 -0.40349585 0.62026089 1.097128e-38
0.7899698 -0.40156886 0.62086976 1.1063476e-38
0.43197727 -0.39946833 0.6217255 1.097128e-38
0.76194084 -0.37903214 0.62016159 1.1063476e-38
0.51913381 -0.32437095 0.6226396 4.0581211e-39
0.52093345 -0.32831794 0.62562811 2.2142071e-39
0.51853514 -0.31528211 0.6243189 3.9659297e-39
0.38127246 -0.30178714 0.62233484 7.8366285e-39
0.48948589 -0.30941567 0.62057418 2.9521519e-39
0.51892954 -0.30451134 0.62599224 2.9521519e-39
0.52006686 -0.30134928 0.62184662 3.2287346e-39
0.51956272 -0.29667678 0.62717986 2.8599577e-39
0.52048194 -0.29414943 0.62427598 3.3205701e-39
0.52117467 -0.28536361 0.62582672 3.0439874e-39
0.52250105 -0.27540234 0.62596053 3.3205701e-39
0.52406847 -0.264718 0.62531435 3.5971528e-39
0.79996401 -0.26665944 0.62162811 1.097128e-38
0.52559465 -0.25461641 0.6255278 4.5190993e-39
0.52697057 -0.245077 0.62539989 4.9797117e-39
0.52819622 -0.23505415 0.62560034 6.4544648e-39
0.47269034 -0.22735003 0.62152916 1.0879084e-38
0.52917045 -0.22635195 0.62610477 6.9157975e-39
0.53065056 -0.22332419 0.6221323 5.2562789e-39
0.52977228 -0.21933377 0.62809736 9.6809237e-39
0.53075379 -0.21486317 0.6265884 8.390552e-39
0.53188592 -0.20447767 0.62638223 6.4548207e-39
0.53332841 -0.19461866 0.6254102 3.228359e-39
0.53525627 -0.184917 0.62498009 2.951768e-39
0.76647484 -0.18573423 0.62200254 1.097128e-38
0.53802282 -0.17489615 0.6252529 4.3235102e-39
0.53984571 -0.16949292 0.62560886 5.6999399e-39
0.54184425 -0.16445301 0.62501913 5.7928571e-39
0.55605394 -0.16113733 0.62274724 2.0294571e-39
0.56352705 -0.16302229 0.62317663 2.306414e-39
0.57145262 -0.16494124 0.62144184 2.0298215e-39
0.43578386 -0.15186667 0.62124705 1.0879084e-38
0.54532313 -0.1589504 0.62290931 4.4203862e-39
0.55279386 -0.1595161 0.62072092 1.7528618e-39
0.50791681 -0.14625844 0.62156761 1.0879084e-38
0.66395223 -0.092179582 0.62141186 1.0879084e-38
0.52963024 -0.080780543 0.62737411 1.1708842e-38
0.53088486 -0.081841841 0.62553698 1.1708842e-38
0.48709565 -0.074070424 0.62107098 1.0879084e-38
0.51896214 -0.070427895 0.62491244 8.9429761e-39
0.52428329 -0.075644329 0.62543589 1.0418103e-38
0.50881726 -0.060098343 0.62474549 8.9429761e-39
0.51390737 -0.065203816 0.62547606 8.9429761e-39
0.50459445 -0.05475802 0.62577385 1.0510302e-38
0.48730901 -0.044592183 0.62583995 9.7583314e-39
0.4979229 -0.042831585 0.62657279 1.1616285e-38
0.50094533 -0.047951031 0.62460142 1.1616648e-38
0.45111817 -0.036131423 0.62161309 1.0786889e-38
0.49763447 -0.036622506 0.62629926 1.1524452e-38
0.50206125 -0.032529164 0.62381554 1.1524091e-38
0.50710237 -0.026956376 0.62534279 1.1431894e-38
0.51258576 -0.022128141 0.62493557 1.1431894e-38
0.51793838 -0.017545108 0.62503862 1.1524089e-38
0.52323347 -0.01300847 0.62473536 1.0138626e-38
0.73019803 -0.013612424 0.62109023 1.0879084e-38
0.52804697 -0.008757039 0.62548947 7.5520865e-39
0.53456575 -0.0032253154 0.62522501 7.366975e-39
0.54625058 -0.0079976832 0.62219691 8.7243721e-39
0.53937745 0.0010456095 0.62628943 6.6279624e-39
0.54452133 0.0056761196 0.62517166 7.3673351e-39
0.48692939 0.014378536 0.62125462 6.9927904e-39
0.55486333 0.015046269 0.62514204 6.9978281e-39
0.56006783 0.01950687 0.62498879 7.2747779e-39
0.56595695 0.024786621 0.62569851 6.9974666e-39
0.57102925 0.029546043 0.62479699 1.1153864e-38
0.57599139 0.034102239 0.62578309 1.1523366e-38
0.58263332 0.038927831 0.62447119 1.142973e-38
0.58821374 0.04211003 0.62492776 1.1337176e-38
0.59222889 0.044173814 0.62427783 1.12439e-38
0.45003134 0.058582611 0.62089252 1.0786889e-38
0.4889093 0.08857435 0.62083453 1.0786889e-38
0.70543706 0.10346907 0.62141997 1.0786889e-38
0.59909397 0.11830762 0.62233746 1.0786889e-38
0.75839692 0.11548397 0.62215233 1.0786889e-38
0.73462439 0.12821984 0.62142152 1.0786889e-38
0.5806967 0.14919129 0.62135553 1.0786889e-38
0.45439053 0.19796106 0.62859416 3.8642655e-39
0.44741729 0.20647009 0.62667054 4.2344913e-39
0.45140901 0.20159037 0.62650371 3.9571828e-39
0.76800084 0.20332044 0.62113506 1.0786889e-38
0.43863267 0.21849787 0.62624621 4.2344927e-39
0.44236949 0.21335438 0.62643802 4.2348529e-39
0.42912579 0.22126977 0.62087464 1.0786889e-38
0.43431574 0.22479403 0.62709224 4.0493798e-39
0.42905879 0.23430924 0.62876958 3.77243e-39
0.43092 0.23071127 0.62587935 4.1419356e-39
0.4200879 0.24085663 0.62160265 1.0694693e-38
0.36621895 0.25944725 0.62220752 1.0694693e-38
0.57010818 0.25013992 0.62113512 1.0786889e-38
0.44462886 0.2873373 0.62219447 1.0694693e-38
0.68447149 0.29036245 0.62168813 1.0694693e-38
0.63076264 0.30502149 0.62188715 1.0694693e-38
0.58439201 0.33909997 0.62120813 1.0694693e-38
0.59050965 0.34630182 0.6216386 1.0694693e-38
0.67667425 0.34506509 0.62005782 1.0694693e-38
0.37157944 0.38326561 0.62122369 1.0694693e-38
0.64680874 0.40368775 0.6203748 1.0694693e-38
0.52362311 -0.33064568 0.63060528 1.3840653e-39
0.51729363 -0.32303837 0.63735485 2.9517974e-39
0.52232611 -0.32983387 0.63805616 2.5833624e-39
0.51657462 -0.31465033 0.63627034 2.8599605e-39
0.51874632 -0.30508015 0.63482517 2.8599577e-39
0.52025795 -0.30048692 0.63832796 2.8599577e-39
0.51982135 -0.2974937 0.63064641 2.8599577e-39
0.52115166 -0.29466435 0.63537151 2.8599577e-39
0.52250963 -0.28497714 0.63493156 2.8599577e-39
0.52390349 -0.27475145 0.63498038 3.1365404e-39
0.52513677 -0.26509994 0.6348629 7.1923858e-39
0.5265497 -0.25512373 0.6350053 1.1524457e-38
0.52792561 -0.24472579 0.6353209 1.1616651e-38
0.52869308 -0.23528711 0.6350174 1.1708845e-38
0.52953345 -0.22546022 0.63423508 1.1708845e-38
0.53007042 -0.22079396 0.63645673 1.1801041e-38
0.52999336 -0.21911629 0.63241881 1.1801041e-38
0.53073961 -0.21469367 0.63571632 1.1801041e-38
0.53200036 -0.20511751 0.63493788 1.1708845e-38
0.53363258 -0.1950741 0.63505465 7.7451952e-39
0.53596455 -0.18506213 0.63508672 2.8599577e-39
0.53845167 -0.1754555 0.63497728 3.0425441e-39
0.54030567 -0.17061555 0.63697475 2.9510701e-39
0.54228348 -0.16486201 0.63509405 5.1467871e-39
0.54440987 -0.1595692 0.63531148 6.2448278e-39
0.52925062 -0.080485016 0.63071907 1.5212275e-38
0.5328688 -0.081628807 0.63182586 1.5211916e-38
0.51948017 -0.071421288 0.63393182 8.942616e-39
0.52497 -0.076077357 0.63355261 1.1984349e-38
0.50971013 -0.061021831 0.63600373 8.9422558e-39
0.51453584 -0.0655642 0.63495374 8.8482595e-39
0.50512701 -0.05525054 0.63504881 1.032555e-38
0.49857867 -0.043501709 0.63464779 1.1522649e-38
0.50109017 -0.048222035 0.63516492 1.1616286e-38
0.49740592 -0.036873806 0.63546896 1.1150628e-38
0.50207758 -0.031721964 0.6350494 1.1149908e-38
0.5069626 -0.027283851 0.63498479 1.1057712e-38
0.51293635 -0.022054417 0.63514549 1.0410542e-38
0.50938171 -0.010491311 0.6393463 7.8257993e-39
0.51748133 -0.01810547 0.63442254 1.0595293e-38
0.5231083 -0.013230542 0.63414252 8.9339587e-39
0.5285387 -0.0085565438 0.63452494 6.3456175e-39
0.53407538 -0.0038412802 0.63483196 6.6204066e-39
0.53865343 0.00011761021 0.635185 6.8033601e-39
0.54481471 0.0057120575 0.63475114 6.7118833e-39
0.55473417 0.014611289 0.63468063 6.8033601e-39
0.56034499 0.019525323 0.63520432 7.0777904e-39
0.56558067 0.02419816 0.63511199 7.2621816e-39
0.5712744 0.029495439 0.63412642 9.8487222e-39
0.57614505 0.03370519 0.6344803 1.0218228e-38
0.58238024 0.038554814 0.63593185 9.8447635e-39
0.58688498 0.042118788 0.63583219 9.8440446e-39
0.59190392 0.045677617 0.63568854 9.7507686e-39
0.45527875 0.19719262 0.63513905 5.3459032e-39
0.46243396 0.19447954 0.6350233 5.6192335e-39
0.44715533 0.20573398 0.63496584 4.8849264e-39
0.45077363 0.20083311 0.63505489 5.0693205e-39
0.43865806 0.21832706 0.63430423 4.6998107e-39
0.4422915 0.2132725 0.63491482 4.9771221e-39
0.43396142 0.2249224 0.63542533 5.0700408e-39
0.42852548 0.23554306 0.63555312 5.1625993e-39
0.43044931 0.23060289 0.63519943 4.8852866e-39
0.42830411 0.2426163 0.63581634 5.4395464e-39
0.431438 0.24767323 0.63776088 5.7172179e-39
0.51818442 -0.32220981 0.64410377 3.2287472e-39
0.52050978 -0.327014 0.64253861 2.7674005e-39
0.51771951 -0.31409749 0.6453321 2.8599605e-39
0.51920968 -0.30709851 0.6439774 2.8599577e-39
0.52074599 -0.30288008 0.64599758 2.8599577e-39
0.52257568 -0.29497516 0.64497328 2.8599577e-39
0.5241881 -0.2849752 0.6449942 2.8599577e-39
0.5251863 -0.2749691 0.64496046 4.8875203e-39
0.52643883 -0.26499516 0.6448822 1.1616651e-38
0.52782446 -0.25517812 0.645114 1.1708845e-38
0.52915239 -0.24527566 0.6453312 1.1801041e-38
0.5296374 -0.23572177 0.642676 1.1801041e-38
0.53040928 -0.23436192 0.64710939 1.1801041e-38
0.52990484 -0.22715427 0.64082068 1.1801041e-38
0.53076774 -0.22482838 0.64551097 1.1801041e-38
0.53145057 -0.21516608 0.64538074 1.1801041e-38
0.53264832 -0.20489837 0.6447863 1.1801041e-38
0.53457987 -0.19504175 0.64475757 1.1247872e-38
0.53670049 -0.18501441 0.6447953 3.1365404e-39
0.54392034 -0.18915352 0.64347374 2.8595975e-39
0.53888059 -0.17694822 0.64478773 2.8599577e-39
0.54077965 -0.17220391 0.64575601 2.8599577e-39
0.54376751 -0.16486593 0.64464575 2.9514316e-39
0.55199653 -0.16132401 0.6425494 3.5053467e-39
0.54578835 -0.15952481 0.64296013 4.5064764e-39
0.5296405 -0.080749288 0.64800906 9.0945952e-39
0.53315002 -0.083274476 0.64593554 9.4676993e-39
0.51846218 -0.070534229 0.64506507 8.7355363e-39
0.52399373 -0.075476497 0.64365971 9.2901506e-39
0.50819236 -0.060941271 0.64385104 9.8462054e-39
0.51405483 -0.065492369 0.64470208 8.7344559e-39
0.50573426 -0.054997142 0.64412135 8.9156059e-39
0.49876717 -0.042715084 0.64532006 9.1921928e-39
0.50162232 -0.047185931 0.6425249 9.1918327e-39
0.49818116 -0.037293684 0.64538795 9.0971161e-39
0.50255442 -0.032461829 0.64582372 8.9084033e-39
0.50734484 -0.027466625 0.64537853 7.8060172e-39
0.51231402 -0.022816733 0.6458984 6.6121557e-39
0.51741183 -0.018306326 0.64478308 6.3370094e-39
0.52351516 -0.012958494 0.64455628 6.7958267e-39
0.5287497 -0.0083103562 0.6452015 8.4488656e-39
0.53380877 -0.0038582045 0.6451959 8.7243721e-39
0.53849792 0.00028451221 0.64498633 8.7243721e-39
0.54494882 0.0061292769 0.64499778 8.7243721e-39
0.54747933 0.01001397 0.64389092 1.0967674e-38
0.55483222 0.015033194 0.64515489 8.7243721e-39
0.5600487 0.019539366 0.64243478 8.7243721e-39
0.56580776 0.024746509 0.64507127 8.7243721e-39
0.57105243 0.02943179 0.6452927 8.7243721e-39
0.57548708 0.033194177 0.64485186 8.7243721e-39
0.58151251 0.038641077 0.64641875 8.7250924e-39
0.58686233 0.042894363 0.64623773 8.9109242e-39
0.59122735 0.046323277 0.64602172 9.0038401e-39
0.44209182 0.19356166 0.6493327 7.3781825e-39
0.45581296 0.19764093 0.64302731 6.5509596e-39
0.46148315 0.19477263 0.64475781 7.1959633e-39
0.44730785 0.20600173 0.64455992 6.1821743e-39
0.45105743 0.20104451 0.64630872 6.2743727e-39
0.4388929 0.21826299 0.6448561 6.1821757e-39
0.44247094 0.21321067 0.64539796 6.1821757e-39
0.43416744 0.22494873 0.6451118 6.1821757e-39
0.42851382 0.23538585 0.64491481 6.1821757e-39
0.43025738 0.23069727 0.64697522 6.1821757e-39
0.42889008 0.24306686 0.64386481 6.1818128e-39
0.43123165 0.24723071 0.64502257 6.5476946e-39
0.4346295 0.25123242 0.64565444 6.6388056e-39
0.51831412 -0.32378229 0.65267968 3.0443573e-39
0.52091849 -0.32448801 0.65668732 3.0439944e-39
0.51881844 -0.31611419 0.65135074 3.5975437e-39
0.52127349 -0.31474087 0.65512836 3.2287528e-39
0.51945096 -0.3098399 0.65043586 2.8599577e-39
0.52173078 -0.30519909 0.65427917 3.136553e-39
0.52377135 -0.29506683 0.65501159 2.8599577e-39
0.52530855 -0.28473744 0.65516245 2.8599577e-39
0.51456505 -0.27927956 0.65836132 1.0049699e-38
0.52631462 -0.27526107 0.65494365 7.7451938e-39
0.52753025 -0.26514718 0.65520912 1.0047879e-38
0.52882886 -0.25484154 0.65473998 9.5876224e-39
0.53274757 -0.253434 0.65683067 6.4533662e-39
0.5296225 -0.24760638 0.65328145 9.4025109e-39
0.53037244 -0.24392465 0.65609723 8.5723887e-39
0.53128928 -0.23490302 0.6549316 8.9411698e-39
0.53229737 -0.22490698 0.65503258 8.8486127e-39
0.53304797 -0.21498373 0.65556818 9.6787349e-39
0.53359663 -0.2051864 0.65481853 1.1524094e-38
0.53494167 -0.19476983 0.6552521 8.7593359e-39
0.53707737 -0.18485641 0.65496033 2.8599577e-39
0.53928673 -0.17789514 0.6551131 2.8599577e-39
0.54095381 -0.17300573 0.65504122 2.8599577e-39
0.55194271 -0.1799064 0.65988553 3.1365544e-39
0.54416341 -0.16462049 0.65483105 2.8599577e-39
0.54901862 -0.15899754 0.65602672 2.8599577e-39
0.55233443 -0.15704273 0.65820247 2.8599577e-39
0.53346699 -0.082386442 0.65161335 9.2793466e-39
0.5191192 -0.071438402 0.65495247 8.7243721e-39
0.52348477 -0.075606629 0.65418792 8.7243721e-39
0.50994194 -0.061192669 0.65751016 8.7243721e-39
0.51402187 -0.065801829 0.65530419 8.7243721e-39
0.49964151 -0.051662814 0.65187496 1.1339339e-38
0.50490344 -0.055328887 0.65522557 8.7243721e-39
0.49835119 -0.04439652 0.65525138 9.6618142e-39
0.49922627 -0.039206926 0.65041095 9.1853503e-39
0.50299811 -0.034805473 0.65416014 7.9896882e-39
0.50807786 -0.027419934 0.65562505 6.5203202e-39
0.5126164 -0.022507761 0.65495479 6.4284847e-39
0.5176906 -0.017791001 0.65399545 6.9794977e-39
0.52391857 -0.012930959 0.65449005 7.8060172e-39
0.52872282 -0.0083286865 0.6555925 8.7243721e-39
0.53382027 -0.0034965393 0.65460038 8.7243721e-39
0.53893125 0.0012458188 0.65515989 8.7243721e-39
0.54476309 0.0064832773 0.65531713 8.7243721e-39
0.55516154 0.015708536 0.65487117 8.7243721e-39
0.56475633 0.024164077 0.65510923 8.7243721e-39
0.57057905 0.029373193 0.65528327 8.7243721e-39
0.57612658 0.03434898 0.65516514 8.7243721e-39
0.58142227 0.039034151 0.65453804 8.7243721e-39
0.5864017 0.043392241 0.65493035 8.7243721e-39
0.45499039 0.19694756 0.65547568 6.9190163e-39
0.46502426 0.19454636 0.65474027 7.6536848e-39
0.47044778 0.1952481 0.65947711 5.7161305e-39
0.44747627 0.20639826 0.65479082 6.2743699e-39
0.45091066 0.2011589 0.65479439 6.7349851e-39
0.43910792 0.21841399 0.65487671 6.1821757e-39
0.44256839 0.21362181 0.65501285 6.1821757e-39
0.43444526 0.22479618 0.65466189 6.5505953e-39
0.42901605 0.23651426 0.6533801 6.3665656e-39
0.43078929 0.23246303 0.65570605 6.7349851e-39
0.4284296 0.24290054 0.65530837 6.3658425e-39
0.43176514 0.24822347 0.65625429 5.7175724e-39
0.43544993 0.2514815 0.65405291 6.36186e-39
0.44238639 0.25471735 0.65280879 6.3643935e-39
0.52261674 -0.3304618 0.66464889 3.1365516e-39
0.51962167 -0.32420149 0.66606635 2.2142099e-39
0.52244318 -0.32960331 0.66753209 3.1365516e-39
0.51975578 -0.31592125 0.66522211 2.8599577e-39
0.52013111 -0.31335711 0.66749239 2.8599577e-39
0.51989841 -0.30897585 0.66319561 2.8599577e-39
0.52134585 -0.30426842 0.66552132 2.8599577e-39
0.5241183 -0.29517654 0.66526312 2.8599577e-39
0.52650172 -0.28533044 0.66500413 4.3347122e-39
0.52766293 -0.27475384 0.66467535 1.1155675e-38
0.52882218 -0.2652244 0.66515166 7.186206e-39
0.52960163 -0.25716597 0.66332376 7.0018134e-39
0.53045887 -0.25319958 0.66641778 5.892219e-39
0.5314163 -0.24469636 0.66492087 5.8922176e-39
0.5325743 -0.23510404 0.66509837 5.8922176e-39
0.53369403 -0.22500539 0.66496372 6.2620833e-39
0.53472823 -0.21499795 0.66538137 6.817062e-39
0.53525949 -0.20503962 0.66528058 8.5716642e-39
0.53603745 -0.1952506 0.66505438 1.0971647e-38
0.53811228 -0.18490478 0.66425246 3.1365404e-39
0.53957635 -0.17873643 0.66532314 2.8599577e-39
0.5411877 -0.17366792 0.66521603 2.8599577e-39
0.53772265 -0.16659197 0.66929471 2.8599577e-39
0.54463083 -0.16494778 0.66537315 2.8599577e-39
0.54905015 -0.15857695 0.66622353 2.8599577e-39
0.55395466 -0.1570681 0.66363591 2.9521603e-39
0.56238163 -0.15817678 0.66467178 3.1365544e-39
0.52893621 -0.081289373 0.66504335 8.7243721e-39
0.53139108 -0.083688669 0.66559666 8.7243721e-39
0.5189988 -0.071017727 0.66579044 8.7243721e-39
0.52375108 -0.075986229 0.66445029 8.7243721e-39
0.50958127 -0.060689613 0.6647045 8.7243721e-39
0.51412684 -0.065730028 0.66518617 8.7243721e-39
0.50417674 -0.054600187 0.66505867 9.0938749e-39
0.49812606 -0.045063071 0.66424155 9.7363633e-39
0.50049371 -0.046581473 0.66778177 1.0101905e-38
0.49852753 -0.037238572 0.6664713 9.0917141e-39
0.50217587 -0.031496756 0.66699141 5.8774718e-39
0.50662065 -0.027202733 0.66610789 6.7039912e-39
0.5125891 -0.022174984 0.66434878 6.4284847e-39
0.51770663 -0.017678609 0.66497993 7.4386752e-39
0.52330834 -0.012607312 0.66537267 8.7243721e-39
0.52870136 -0.0077345944 0.66480458 8.7243721e-39
0.53371239 -0.0032348281 0.66502553 8.7243721e-39
0.53874922 0.0012991532 0.66526496 8.7243721e-39
0.54457134 0.0065570399 0.66443187 8.7243721e-39
0.54845977 0.010032128 0.6660319 8.7243721e-39
0.55488116 0.015585955 0.66536123 8.7243721e-39
0.56522 0.024704825 0.66446662 8.7243721e-39
0.57024771 0.029317332 0.66493678 8.7243721e-39
0.57555681 0.034158446 0.66540688 8.7243721e-39
0.5814743 0.03921283 0.66631192 8.9080431e-39
0.5865562 0.042964246 0.66515279 8.9998786e-39
0.59288216 0.045552619 0.66771764 9.4590561e-39
0.45601645 0.19672017 0.66496652 7.0112105e-39
0.46088865 0.19404608 0.6679163 8.9458656e-39
0.44745842 0.20621094 0.66467845 7.563664e-39
0.45101559 0.20122898 0.66513389 7.0112119e-39
0.43899122 0.21852598 0.66483575 3.2341016e-39
0.44260994 0.21343763 0.66519338 3.5103269e-39
0.4342342 0.22488944 0.66519451 5.7219234e-39
0.42883596 0.23630771 0.66570961 7.1034061e-39
0.43044281 0.23094325 0.66489869 8.1164734e-39
0.42910668 0.2424016 0.66519564 6.1821743e-39
0.43171722 0.24709047 0.66394562 5.3487941e-39
0.43667597 0.25260898 0.66507423 5.9012406e-39
0.51990211 -0.32428378 0.67162275 2.3060468e-39
0.5206151 -0.32388464 0.67618495 2.3986082e-39
0.52033269 -0.31505027 0.67450958 2.8599577e-39
0.52178258 -0.30498281 0.67478341 2.8599577e-39
0.52478224 -0.29487047 0.67491496 2.8599577e-39
0.52732587 -0.28515217 0.67490155 9.9575064e-39
0.52862942 -0.27524289 0.67511952 1.1708845e-38
0.52952719 -0.2661598 0.67340136 7.6464625e-39
0.53037012 -0.26280889 0.67688471 7.3698742e-39
0.53115046 -0.25512001 0.67498505 5.8914988e-39
0.53254187 -0.24538647 0.67489481 5.983693e-39
0.53406543 -0.23497275 0.67491549 5.8914988e-39
0.53542709 -0.22484498 0.67496949 5.983693e-39
0.53629923 -0.21520597 0.67480874 5.983693e-39
0.53686529 -0.20512162 0.67490041 7.7386582e-39
0.53753197 -0.19482279 0.67540991 1.1708845e-38
0.53838462 -0.1852622 0.67451829 3.9659339e-39
0.54030764 -0.18173303 0.67866492 2.8599577e-39
0.53964913 -0.17911801 0.67134362 2.8599577e-39
0.54236901 -0.17501183 0.67543805 2.8599577e-39
0.54664201 -0.16511783 0.67512769 2.8599577e-39
0.54946953 -0.15878074 0.67510891 2.8599577e-39
0.55045938 -0.15676108 0.67586911 2.8599577e-39
0.52892631 -0.081225432 0.67379111 9.4709391e-39
0.53225678 -0.083827697 0.67486376 9.8454838e-39
0.51908648 -0.071223632 0.67354679 8.8241306e-39
0.52400559 -0.076416798 0.67546928 9.7522091e-39
0.50877005 -0.060116407 0.6724723 8.8183684e-39
0.51382244 -0.065600909 0.67516387 8.9210079e-39
0.50445998 -0.05495517 0.67506349 9.4745419e-39
0.49694493 -0.044496037 0.67685574 9.578982e-39
0.49858072 -0.038010757 0.67409056 6.0647441e-39
0.50264508 -0.033300411 0.67414331 6.7958267e-39
0.50774878 -0.02701319 0.67393208 6.2448137e-39
0.51275027 -0.021817297 0.67464501 7.1631687e-39
0.51765132 -0.017342342 0.67555761 8.6325366e-39
0.5227741 -0.012736465 0.67465949 8.7243721e-39
0.52767533 -0.0083672376 0.6746459 8.7243721e-39
0.5335961 -0.0030217753 0.67564082 8.7243721e-39
0.54319811 -0.0072038681 0.67614877 8.7243721e-39
0.53884745 0.0016712238 0.67446393 8.7243721e-39
0.54389191 0.0062141274 0.67474169 8.7243721e-39
0.54881376 0.01065247 0.67640072 8.7243721e-39
0.55491281 0.01582328 0.67480081 8.8180083e-39
0.56471199 0.024414262 0.67465848 8.7243721e-39
0.57017624 0.02925843 0.67541385 8.7243721e-39
0.57520324 0.033983488 0.67523456 8.7243721e-39
0.58061963 0.039068993 0.67643976 8.7243721e-39
0.5832696 0.041522749 0.67828578 8.7243721e-39
0.45587784 0.1969166 0.67516893 7.6562156e-39
0.46415868 0.19412182 0.67343611 7.7466021e-39
0.4475143 0.20638217 0.67519563 6.181817e-39
0.45108569 0.20141803 0.67501998 6.4584011e-39
0.43896574 0.21869443 0.67513281 2.5826197e-39
0.44259766 0.21377702 0.674784 2.9510379e-39
0.43435505 0.22513674 0.67500764 4.3364835e-39
0.42970189 0.23598032 0.67274702 6.1821757e-39
0.43055171 0.2329805 0.67554539 6.1821757e-39
0.42939699 0.24306093 0.67517918 6.2740098e-39
0.43195972 0.24805604 0.67642564 6.3629446e-39
0.43609786 0.25195324 0.67538285 6.638807e-39
0.52452791 -0.33061907 0.68540555 1.3837052e-39
0.5228579 -0.32470036 0.68423855 2.2142099e-39
0.52095121 -0.31501353 0.68425453 2.8599577e-39
0.5219025 -0.30512762 0.68519109 2.8599577e-39
0.52497709 -0.29513612 0.68494493 2.8599577e-39
0.52795881 -0.28504923 0.68502837 1.0602869e-38
0.52941644 -0.27567086 0.68483996 1.1801041e-38
0.53009856 -0.27102378 0.68615723 1.1801041e-38
0.52998626 -0.26920956 0.68054658 1.1708845e-38
0.53083915 -0.26506853 0.68548685 1.1708845e-38
0.53210592 -0.25484386 0.68479085 1.0324104e-38
0.53359234 -0.24478579 0.68507665 9.2163134e-39
0.53505117 -0.23525223 0.68494439 8.8471693e-39
0.53658038 -0.22532181 0.68496585 9.1241163e-39
0.53786516 -0.21468619 0.68508208 1.0047157e-38
0.53832912 -0.20500174 0.68463308 1.1524094e-38
0.53887057 -0.19537202 0.68499798 1.1063483e-38
0.53935575 -0.18687485 0.68410331 4.5191007e-39
0.54045379 -0.18273675 0.68663406 2.8599577e-39
0.54222888 -0.17517978 0.68582511 2.8599577e-39
0.54532331 -0.16498199 0.68680686 2.8599577e-39
0.5487057 -0.1585833 0.68494743 2.8599577e-39
0.55393761 -0.15657309 0.68620586 2.9521575e-39
0.52877051 -0.081010446 0.68628842 1.2722633e-38
0.53314191 -0.083746262 0.68653542 1.3921539e-38
0.51827699 -0.071278103 0.6852746 8.9418957e-39
0.52377468 -0.075886592 0.68474901 1.1154589e-38
0.50899184 -0.060812011 0.68512678 8.9418957e-39
0.51320779 -0.065660357 0.68564683 8.9422558e-39
0.50443387 -0.055185497 0.68514913 1.0694692e-38
0.49756926 -0.044480532 0.68386948 1.1338259e-38
0.50077844 -0.048621733 0.68564099 1.1616286e-38
0.49785271 -0.037036702 0.68708789 8.5695076e-39
0.50231862 -0.032302782 0.68575311 8.833494e-39
0.50754803 -0.02655508 0.68523896 8.0919661e-39
0.51239765 -0.021761278 0.68446529 9.1911124e-39
0.51700717 -0.01757999 0.68588954 9.657131e-39
0.5225603 -0.012618099 0.68425226 9.2847472e-39
0.52749938 -0.008107543 0.68519861 9.4727412e-39
0.53339595 -0.0028334821 0.68491989 6.8019812e-39
0.53851646 0.0017254718 0.6844644 6.3417289e-39
0.54362404 0.0063494006 0.68537033 5.7003294e-39
0.54881424 0.010991384 0.6849491 5.7918048e-39
0.55507839 0.016468624 0.68447977 6.5286397e-39
0.56512535 0.025020447 0.68543023 1.0217509e-38
0.57001239 0.029206302 0.68457806 1.0122792e-38
0.57562101 0.034337226 0.68477833 1.0216789e-38
0.58053768 0.038950335 0.68546319 1.040406e-38
0.58558667 0.043127086 0.68532825 1.0589891e-38
0.45615909 0.19761017 0.68481857 6.8271836e-39
0.46274835 0.19419262 0.68541169 7.7476909e-39
0.44708908 0.20635755 0.68499571 7.010493e-39
0.45122004 0.2014823 0.68510324 7.3796329e-39
0.43901443 0.21853563 0.68518925 2.7659292e-39
0.44250801 0.21369484 0.68491822 3.3183757e-39
0.43480361 0.2248323 0.68477577 4.9804067e-39
0.42866984 0.23617829 0.68532538 7.9317235e-39
0.43102646 0.23163627 0.68504244 8.2086691e-39
0.4287836 0.24158168 0.68378139 6.4569493e-39
0.43203971 0.24633589 0.68512911 6.0859948e-39
0.43506476 0.25078753 0.6863265 6.2700245e-39
0.44031435 0.25431424 0.68385929 7.0079483e-39
0.52772671 -0.33182326 0.69294494 2.8599577e-39
0.52201289 -0.32397994 0.69549102 2.6755622e-39
0.52132106 -0.3144159 0.69532102 2.8599577e-39
0.52321082 -0.3048315 0.694727 2.8599577e-39
0.52584881 -0.29488966 0.69475144 3.0443461e-39
0.52858025 -0.28495497 0.69491243 9.4043382e-39
0.52969438 -0.27764165 0.69272792 1.1801041e-38
0.5306707 -0.27381009 0.69575822 1.1801041e-38
0.53186405 -0.26476267 0.69506556 1.1801041e-38
0.5331744 -0.2552042 0.69494903 1.1801041e-38
0.53471178 -0.24501139 0.69488895 1.1616289e-38
0.53603768 -0.23469754 0.6950115 1.1801041e-38
0.53735864 -0.22485986 0.69503742 1.1801041e-38
0.54073262 -0.22204563 0.69976354 3.8737383e-39
0.53865451 -0.21535145 0.69536871 1.1708845e-38
0.5395124 -0.2059001 0.69342101 1.1708845e-38
0.54099935 -0.20306285 0.69735759 7.9310214e-39
0.53978461 -0.19621408 0.69104993 1.0141896e-38
0.54066688 -0.19474386 0.69580621 5.8094667e-39
0.54136848 -0.1849159 0.69503349 2.8599577e-39
0.5437203 -0.17488043 0.69439155 2.8599577e-39
0.54734343 -0.1648768 0.69378638 2.8599577e-39
0.54952198 -0.15942134 0.69456035 2.8599577e-39
0.55161351 -0.15783559 0.69606233 2.8599577e-39
0.56428671 -0.15806094 0.69049835 3.0443545e-39
0.53588355 -0.082478277 0.69399655 1.576545e-38
0.54133189 -0.082356215 0.69844955 1.9729498e-38
0.51870769 -0.071355194 0.6942836 8.9429761e-39
0.52394778 -0.07589528 0.69521636 1.1985429e-38
0.50911045 -0.060228113 0.69389248 8.9429761e-39
0.51417547 -0.065393232 0.69608539 9.5883455e-39
0.55777955 -0.066485189 0.69990557 1.9268522e-38
0.50456029 -0.055000875 0.69523531 1.0694692e-38
0.51500863 -0.056412339 0.69555181 1.2538246e-38
0.49786168 -0.044217698 0.69582915 1.1432618e-38
0.50011075 -0.041350335 0.69888765 1.0880165e-38
0.49882829 -0.038560648 0.69366878 8.9418859e-39
0.50262457 -0.034666337 0.69565928 1.1524089e-38
0.50750524 -0.027529735 0.69522643 1.2353491e-38
0.51226968 -0.022716379 0.69590521 1.2538241e-38
0.51749325 -0.017732603 0.69499409 1.1985068e-38
0.52323508 -0.012748889 0.69585145 1.2077265e-38
0.52790642 -0.0083452156 0.69528258 1.2169822e-38
0.53375107 -0.0033909085 0.69584101 4.8875245e-39
0.53869641 0.0016887668 0.69436425 2.951433e-39
0.54457468 0.0058661206 0.69640166 2.8599563e-39
0.54882073 0.010730671 0.69343174 2.8595975e-39
0.55521202 0.015221185 0.69580764 4.6113019e-39
0.56098789 0.019248959 0.69837874 1.0602497e-38
0.56555408 0.024085 0.69536835 1.0786887e-38
0.57114512 0.028351873 0.69699919 1.0233714e-38
0.5875721 0.027092677 0.6960541 1.8346566e-38
0.57601285 0.033407871 0.69448364 1.0509939e-38
0.58238471 0.037967268 0.69589293 9.9571266e-39
0.58702654 0.042057831 0.69394082 1.050994e-38
0.59137839 0.04450769 0.69587147 9.7727354e-39
0.45651102 0.19781098 0.69530863 6.366204e-39
0.46350467 0.19440933 0.69490135 8.2083047e-39
0.47048813 0.1968753 0.6988157 9.1291722e-39
0.4476929 0.2066244 0.69461036 6.0899801e-39
0.45130348 0.20195584 0.69548857 6.1821757e-39
0.43899789 0.21904397 0.69442832 5.0747603e-39
0.4426429 0.21391039 0.69542795 5.536093e-39
0.43489271 0.22509757 0.69526881 5.8130372e-39
0.4292002 0.23660384 0.69459987 6.1818128e-39
0.43069914 0.23188876 0.69629592 6.0899787e-39
0.41900453 0.24114101 0.69869715 6.0881682e-39
0.42945105 0.24115007 0.69438165 6.4573136e-39
0.43216768 0.24565853 0.69567573 5.994888e-39
0.43723449 0.25162229 0.6967057 5.7172109e-39
0.44172415 0.25463298 0.69549912 5.8086862e-39
0.52662003 -0.33022285 0.7077176 1.3837052e-39
0.52301937 -0.32458779 0.70550656 2.2142127e-39
0.52275962 -0.31517297 0.70539826 2.8599577e-39
0.52393502 -0.30506414 0.70493126 2.8599577e-39
0.52648509 -0.29506698 0.70498204 2.8603164e-39
0.5288676 -0.28597429 0.70466602 7.561883e-39
0.53030723 -0.28123534 0.70658207 1.069758e-38
0.53153908 -0.27518082 0.70500726 1.106528e-38
0.5332486 -0.26518607 0.70494753 1.106528e-38
0.52301365 -0.25818935 0.70161688 4.4280541e-39
0.53463179 -0.2551021 0.70479542 1.1341146e-38
0.5360142 -0.24494387 0.70517468 1.1341146e-38
0.53708494 -0.23521863 0.70479333 1.1617011e-38
0.53828555 -0.2251054 0.70501316 1.1617011e-38
0.5393554 -0.21572071 0.70434654 7.4689699e-39
0.54025817 -0.21189821 0.70818776 2.8603164e-39
0.53989786 -0.20937319 0.70113468 7.0079973e-39
0.54084897 -0.2047911 0.70504367 3.1365404e-39
0.54202074 -0.19496906 0.70500231 2.8599577e-39
0.54370785 -0.18491638 0.70517093 2.8599577e-39
0.54558444 -0.17490965 0.70503181 2.8599577e-39
0.54768836 -0.16514888 0.70485628 2.8599577e-39
0.55039942 -0.16094263 0.70730925 2.8599577e-39
0.55489671 -0.15749364 0.7055558 2.8599577e-39
0.56032956 -0.1548494 0.70906484 2.8599577e-39
0.55323219 -0.14682837 0.70112872 3.0443545e-39
0.53492308 -0.080988251 0.7018013 1.9176691e-38
0.52620733 -0.074345067 0.70269668 1.5673257e-38
0.53445047 -0.0749119 0.70568293 1.6963633e-38
0.54298174 -0.072912067 0.70603383 1.871499e-38
0.55069 -0.072067067 0.70139188 1.8622791e-38
0.51752573 -0.063585564 0.70223695 1.1801041e-38
0.52453119 -0.065345295 0.70528156 1.4659104e-38
0.5351488 -0.064902119 0.70662266 1.9084491e-38
0.54414278 -0.064388275 0.7069329 1.9268882e-38
0.55423856 -0.064270779 0.7037791 1.696291e-38
0.56153595 -0.061480291 0.70265752 1.6133155e-38
0.49419913 -0.051100545 0.70757961 1.2539686e-38
0.50675845 -0.053094082 0.70321679 1.281519e-38
0.51421225 -0.05538613 0.70560753 1.3552758e-38
0.52503359 -0.054828264 0.70640135 1.5212279e-38
0.53533471 -0.055057317 0.70607877 1.7793754e-38
0.54528522 -0.055277128 0.70645863 1.9084491e-38
0.55477488 -0.054236349 0.70688891 1.9545471e-38
0.56404227 -0.054183681 0.70573372 1.6042798e-38
0.57244396 -0.052350823 0.70285767 4.889405e-39
0.49935097 -0.046388224 0.70120955 1.2539686e-38
0.50455284 -0.044986222 0.70502222 1.382862e-38
0.51483965 -0.044639815 0.70657009 1.6595213e-38
0.52482212 -0.045251478 0.70575929 1.5027888e-38
0.53548259 -0.044784855 0.70581603 1.5212279e-38
0.54527402 -0.045083337 0.70580053 1.724022e-38
0.55480379 -0.044954397 0.70634526 1.9361081e-38
0.56454539 -0.045055795 0.70667493 1.7056581e-38
0.57396764 -0.043905813 0.70594144 5.2578288e-39
0.58232266 -0.04258468 0.7032873 4.8894064e-39
0.5061518 -0.036016978 0.70382869 1.281483e-38
0.51526457 -0.034617659 0.70531368 1.8807903e-38
0.52488768 -0.034846272 0.70506763 1.5949844e-38
0.53486139 -0.03510122 0.70535856 1.5027888e-38
0.54532909 -0.035065517 0.7057305 1.5027888e-38
0.55495334 -0.035025202 0.70614374 1.4843882e-38
0.56441605 -0.035054043 0.70636106 6.4563552e-39
0.57468992 -0.03490467 0.70629853 4.8894064e-39
0.58423012 -0.034707341 0.70609653 5.2581847e-39
0.59196234 -0.031793255 0.70460969 8.6683062e-39
0.50857979 -0.028862271 0.70110238 1.3460198e-38
0.51513815 -0.025781695 0.70277536 1.5120079e-38
0.5246191 -0.025015047 0.70418572 1.862315e-38
0.53510892 -0.024861436 0.70553058 1.5857648e-38
0.54502457 -0.025014099 0.70611763 1.4105947e-38
0.55432904 -0.025051525 0.70642769 6.6403765e-39
0.56454384 -0.025013803 0.70634919 4.8894064e-39
0.57464617 -0.02521071 0.7064327 4.8894064e-39
0.58486879 -0.025026144 0.70641804 4.889405e-39
0.59394729 -0.024025548 0.70618093 8.5761049e-39
0.6020171 -0.022886161 0.70358062 1.7423889e-38
0.51883441 -0.019236099 0.70070994 1.3552395e-38
0.52587241 -0.016252141 0.70227289 1.4935691e-38
0.53492081 -0.0149101 0.70447576 1.6503035e-38
0.54486573 -0.01486601 0.70608085 6.0875642e-39
0.55448747 -0.015284919 0.70650226 4.8890463e-39
0.56447196 -0.014822711 0.70643735 4.8894064e-39
0.5744819 -0.014996664 0.70640451 4.8894064e-39
0.5846824 -0.014667613 0.70655191 4.9815992e-39
0.59483582 -0.015237402 0.70644301 1.0235256e-38
0.60480887 -0.014506564 0.70495749 1.9545109e-38
0.6142323 -0.013019656 0.70303327 1.9360719e-38
0.62041169 -0.010105636 0.70236576 2.0098646e-38
0.53620487 -0.0063868919 0.70208645 5.0730297e-39
0.54476744 -0.0047929226 0.70463544 4.2436586e-39
0.55443436 -0.0051844632 0.70656842 4.8890449e-39
0.56443107 -0.0046356837 0.70648772 4.8894078e-39
0.57482231 -0.0047537484 0.70616138 5.1656304e-39
0.58514744 -0.0051124101 0.70608848 8.2998726e-39
0.59558654 -0.0053480705 0.7061159 1.8623516e-38
0.60572404 -0.0055925441 0.70546985 2.0005717e-38
0.61497694 -0.0044740005 0.70558989 1.9360714e-38
0.62272543 -0.003966738 0.70514464 1.9268525e-38
0.54664791 0.0031134798 0.70231831 3.6901051e-39
0.55465853 0.0051612942 0.70475453 4.0588988e-39
0.56451797 0.0047629089 0.7063815 4.9812433e-39
0.57498068 0.0046036392 0.70594895 7.6541543e-39
0.58557039 0.0046265842 0.70574749 1.4935698e-38
0.59493989 0.0051112981 0.70563835 1.539667e-38
0.60423595 0.0049850764 0.70594686 1.7885949e-38
0.61432981 0.0056007253 0.70703721 1.908413e-38
0.62156934 0.0040526981 0.70703256 1.9268518e-38
0.55706805 0.01163526 0.7017929 4.6116873e-39
0.56504011 0.015150356 0.70405942 1.0511061e-38
0.5754506 0.014878212 0.70538276 1.6042407e-38
0.5854516 0.014818211 0.70543116 1.5212279e-38
0.59498 0.015725203 0.7053473 1.5120083e-38
0.6044718 0.015516466 0.70567733 1.5027888e-38
0.61418599 0.014922348 0.70588046 1.6226071e-38
0.62117273 0.01459955 0.70446354 1.6963996e-38
0.5680781 0.022198264 0.70139098 1.0602497e-38
0.57483643 0.025172822 0.70319879 1.5304473e-38
0.58484972 0.025117602 0.70422226 1.5488866e-38
0.59463203 0.025301091 0.70494312 1.5120083e-38
0.60443676 0.02470299 0.70469475 1.5304475e-38
0.61334431 0.02433702 0.70215952 1.4843496e-38
0.57810479 0.031746503 0.70156372 1.2262019e-38
0.58560735 0.034670368 0.70276582 1.6502656e-38
0.5943948 0.034485251 0.70459443 1.6779605e-38
0.60395813 0.032012071 0.70299011 1.5949843e-38
0.58842051 0.040464077 0.70097673 1.3091418e-38
0.59173328 0.041304607 0.70200616 1.4750935e-38
0.45730627 0.19807078 0.70379341 4.5096335e-39
0.46439672 0.19742692 0.70457792 6.4453802e-39
0.47192299 0.19865033 0.70300758 8.4783826e-39
0.44849861 0.20783705 0.70345336 4.4206917e-39
0.45342109 0.20380092 0.70663184 4.7851358e-39
0.46531832 0.20112664 0.70838255 6.1648164e-39
0.47428486 0.20500295 0.7076292 6.533236e-39
0.43976888 0.21926595 0.70121747 5.0696778e-39
0.44498152 0.21500269 0.70578718 4.3256038e-39
0.45026624 0.21041372 0.70928663 4.6925786e-39
0.47730231 0.21817839 0.70890695 6.7169056e-39
0.42969108 0.22061965 0.70278603 4.509272e-39
0.43675604 0.22564474 0.70485663 4.2341312e-39
0.44180083 0.22203505 0.70828527 4.7844141e-39
0.47335547 0.22404651 0.70918196 6.5325171e-39
0.42975855 0.23739539 0.70113677 3.77243e-39
0.43306234 0.23464291 0.70606124 4.3248807e-39
0.46793762 0.23214827 0.7058872 5.7092613e-39
0.43422249 0.24472627 0.70597231 4.3259639e-39
0.44056576 0.2492449 0.70928204 3.9564597e-39
0.45856297 0.2493891 0.7066642 6.3488461e-39
0.46224907 0.24470584 0.70780134 6.3488461e-39
0.43830767 0.25119114 0.70184976 4.8838404e-39
0.44480655 0.25292662 0.70582432 4.5103566e-39
0.45276698 0.25214592 0.70796454 6.0737054e-39
0.52892572 -0.33119372 0.71207124 3.043993e-39
0.5332275 -0.33358186 0.71608663 2.9517974e-39
0.52469599 -0.32418144 0.71422172 2.2142113e-39
0.5306294 -0.32954305 0.71959972 2.8599577e-39
0.52421546 -0.31467974 0.71546406 2.7799786e-39
0.52536041 -0.30499506 0.71468353 2.7886022e-39
0.52763849 -0.29497465 0.7150861 2.789321e-39
0.52939886 -0.28770274 0.71407074 2.7896798e-39
0.530752 -0.28311604 0.71543533 2.8822341e-39
0.53241771 -0.27522436 0.71508807 2.8822355e-39
0.53445578 -0.26504496 0.71506423 2.9744298e-39
0.53587472 -0.25474796 0.71501547 2.974071e-39
0.54225826 -0.25574997 0.71366686 2.789321e-39
0.53708214 -0.24508604 0.71498758 2.974071e-39
0.5382818 -0.23515703 0.71481854 3.433966e-39
0.53938824 -0.22552025 0.71443909 3.5258015e-39
0.54020792 -0.22197615 0.71813238 2.7904e-39
0.53987163 -0.21808946 0.71119487 4.4384041e-39
0.54083103 -0.21459977 0.71558738 2.7896812e-39
0.54188466 -0.20510888 0.71490204 2.786447e-39
0.54313368 -0.1948515 0.71549386 2.7864484e-39
0.54419136 -0.18546408 0.71542066 2.7868057e-39
0.54724759 -0.1752423 0.71445864 2.781775e-39
0.54935569 -0.16758403 0.71386337 2.7763856e-39
0.55142176 -0.16316642 0.71437764 2.7745892e-39
0.556238 -0.1583318 0.7136125 3.1383522e-39
0.56378251 -0.15680388 0.71362323 3.5979053e-39
0.54364967 -0.073589481 0.71491295 1.6410819e-38
0.54513949 0.0011976939 0.7105574 1.105303e-38
0.45723322 0.20685253 0.71157688 5.6127272e-39
0.46497396 0.20605659 0.71207106 6.2570106e-39
0.47199333 0.20849098 0.71166599 6.4410404e-39
0.4485881 0.21728037 0.71110189 5.0606381e-39
0.45472637 0.21511017 0.71306276 5.8885925e-39
0.46477261 0.21464524 0.71392512 6.4410404e-39
0.47328484 0.21442156 0.71182984 6.6247114e-39
0.4392446 0.22871149 0.71052486 5.1524736e-39
0.445476 0.22547106 0.71205413 5.7045627e-39
0.45470834 0.22484662 0.71431458 6.1648164e-39
0.46431643 0.22479437 0.7134164 6.5328759e-39
0.47135505 0.22251076 0.71094435 6.6247114e-39
0.43782473 0.2359482 0.7116285 5.1524736e-39
0.44455487 0.23465158 0.71370029 6.0729809e-39
0.45450625 0.23506507 0.71408105 6.4410404e-39
0.46330985 0.23396614 0.7118867 6.6247114e-39
0.4381727 0.24285537 0.71131444 4.9688026e-39
0.44468805 0.2448954 0.71284634 5.796757e-39
0.45363668 0.24382293 0.71306765 6.4406816e-39
0.46050531 0.24178089 0.71125412 6.5328759e-39
0.44761467 0.2504499 0.71086937 5.2446678e-39
0.53572774 -0.33434081 0.72155893 2.8599577e-39
0.52565014 -0.32300788 0.72549188 1.7532206e-39
0.52531308 -0.31542948 0.72520494 2.7763828e-39
0.5267359 -0.30501547 0.72496837 2.7904e-39
0.5287506 -0.29560965 0.72471207 2.7904e-39
0.53020847 -0.2916308 0.72828841 2.7904e-39
0.5298757 -0.28923467 0.72136778 2.7904e-39
0.53146625 -0.28468791 0.72519094 2.7904e-39
0.53351462 -0.27467632 0.72504658 2.7904e-39
0.53537679 -0.26476935 0.72522169 2.7904e-39
0.53677702 -0.25495696 0.72502023 2.7904e-39
0.538032 -0.24508397 0.72478282 2.7904e-39
0.5392803 -0.23542935 0.72464794 2.7904e-39
0.54019648 -0.23225909 0.72831076 2.7904e-39
0.53971046 -0.22838612 0.72094244 2.7904e-39
0.54086769 -0.22443865 0.72557533 2.7904e-39
0.54200965 -0.21498579 0.72475278 2.7904e-39
0.54332292 -0.20501792 0.72515184 2.7904e-39
0.54431331 -0.1951234 0.72486466 2.7904e-39
0.55252087 -0.19255772 0.72787309 2.8696617e-39
0.5452891 -0.1850661 0.72531939 2.7904e-39
0.54665673 -0.17466542 0.72510856 2.7907602e-39
0.54853308 -0.16702861 0.72357464 2.8836775e-39
0.55271131 -0.1639231 0.72579777 2.9773164e-39
0.55737484 -0.15870245 0.72383183 2.965453e-39
0.56228238 -0.15620244 0.72749096 3.1405088e-39
0.53354973 -0.3325378 0.73734713 2.9521561e-39
0.54035145 -0.33760464 0.73834044 2.9521561e-39
0.52782249 -0.32429042 0.73472077 1.752859e-39
0.52741832 -0.31498462 0.73501748 2.775308e-39
0.53181547 -0.31093264 0.73699164 4.9816034e-39
0.52811712 -0.30495203 0.73496145 2.7821352e-39
0.52948654 -0.29725328 0.73485273 2.7824939e-39
0.53053212 -0.29254559 0.73576772 2.7796198e-39
0.53235787 -0.28496853 0.73503858 2.8732546e-39
0.53409666 -0.27527735 0.7346983 2.7814163e-39
0.53566259 -0.26515725 0.73532277 2.7806974e-39
0.53718495 -0.25487861 0.73495817 2.7821352e-39
0.53888619 -0.24454165 0.7347787 2.782854e-39
0.53986979 -0.23860997 0.73462421 2.7842904e-39
0.5406965 -0.23354024 0.73528552 2.781775e-39
0.54176962 -0.22513136 0.73485982 2.7839316e-39
0.54303688 -0.21486257 0.73491496 2.7842904e-39
0.54427594 -0.20474248 0.73526615 2.7835729e-39
0.54526281 -0.1952479 0.73485911 2.9686802e-39
0.54645705 -0.18482909 0.73544413 2.7850092e-39
0.54790455 -0.17552143 0.73457605 2.7878861e-39
0.55106097 -0.17196307 0.73837686 3.1505674e-39
0.54946673 -0.16950071 0.73312664 2.7904e-39
0.55373168 -0.16481468 0.73650259 3.0666352e-39
0.55718076 -0.15872161 0.7352913 3.1523666e-39
0.5647679 -0.15702355 0.73337275 3.2319884e-39
0.57121599 -0.15663661 0.73361129 3.32131e-39
0.53504491 -0.33331814 0.74867564 2.8599577e-39
0.5286032 -0.32367983 0.74528641 1.8450589e-39
0.53098679 -0.32908341 0.7457338 2.8599577e-39
0.56759524 -0.32720116 0.74900377 5.4425774e-39
0.57199293 -0.32213122 0.74743694 6.3641399e-39
0.52917928 -0.31508407 0.74493563 2.7677621e-39
0.53010505 -0.31071138 0.74855757 2.8599577e-39
0.57414043 -0.31148863 0.74959451 5.7191517e-39
0.52954423 -0.30598342 0.74230289 2.8599577e-39
0.53049451 -0.30401224 0.74715501 2.8599577e-39
0.57684368 -0.30329388 0.74884319 4.9819439e-39
0.53137195 -0.29491252 0.74493045 2.8599577e-39
0.53311551 -0.28517312 0.74473542 2.8599577e-39
0.53471988 -0.27504957 0.74507552 2.8599577e-39
0.53592843 -0.26501536 0.74528074 2.8599577e-39
0.58277863 -0.26183382 0.74908692 5.7191615e-39
0.53728735 -0.25523719 0.74509478 2.8599591e-39
0.5820176 -0.25838053 0.74993265 5.62697e-39
0.52823728 -0.24694529 0.74055088 7.7552565e-39
0.53899103 -0.2454271 0.74485362 2.8599577e-39
0.54020542 -0.24103472 0.74894917 2.8599577e-39
0.5398618 -0.23940915 0.74243236 2.8599577e-39
0.54090661 -0.23490097 0.74540997 2.8599577e-39
0.54264528 -0.22499283 0.74523062 2.8599577e-39
0.58840942 -0.2283047 0.74973249 5.7191559e-39
0.54408479 -0.2152683 0.74525148 2.8599577e-39
0.55012703 -0.21389072 0.74594003 1.1249037e-38
0.59106058 -0.21660638 0.74911296 6.0879272e-39
0.54552948 -0.20529571 0.74530637 2.8599577e-39
0.59334159 -0.20313928 0.74891007 6.0879272e-39
0.54678041 -0.19479875 0.74507076 2.8599577e-39
0.54815143 -0.185261 0.7450186 2.8599577e-39
0.55034018 -0.18276924 0.74952054 3.0443545e-39
0.54919553 -0.17805173 0.74353987 2.8599591e-39
0.55157679 -0.17404145 0.745992 2.8603192e-39
0.55610752 -0.1652863 0.74450433 2.8613968e-39
0.56091154 -0.16100034 0.74404645 2.8599577e-39
0.5572536 -0.15662107 0.74847448 3.6901051e-39
0.56350207 -0.15701094 0.74513173 2.953954e-39
0.5748744 -0.15274018 0.74884021 2.9528764e-39
0.53688651 -0.33303225 0.75539798 2.4908024e-39
0.54353523 -0.3332392 0.75867051 3.6893442e-39
0.55600935 -0.33092165 0.75584072 4.7050095e-39
0.56345105 -0.33236325 0.7503112 4.7046494e-39
0.52984273 -0.32235223 0.75117564 1.5684636e-39
0.53465122 -0.32474214 0.75503755 2.6752063e-39
0.5446915 -0.32517588 0.75844473 3.781921e-39
0.5550372 -0.32454672 0.75642586 5.0738019e-39
0.56216079 -0.32394058 0.75407398 5.1660017e-39
0.52993566 -0.31875026 0.75106221 2.8599563e-39
0.53385174 -0.31468228 0.75549024 3.5979067e-39
0.54461879 -0.31480703 0.75894284 4.889405e-39
0.55506927 -0.31523889 0.75785297 5.0738019e-39
0.56382078 -0.31468931 0.75539994 5.1663604e-39
0.57118237 -0.31490582 0.75064766 5.1660003e-39
0.5341047 -0.30515531 0.7560575 3.3213128e-39
0.5441168 -0.30817696 0.75973839 4.7972094e-39
0.55532062 -0.30579147 0.7591998 5.0738019e-39
0.5645352 -0.3046048 0.75670373 5.1660017e-39
0.57219416 -0.30392945 0.75293136 5.1660003e-39
0.52629113 -0.29353216 0.75416851 4.5202511e-39
0.53475469 -0.29510921 0.75557566 3.1365544e-39
0.55670315 -0.29518965 0.75927585 5.1660003e-39
0.56485635 -0.2948789 0.75679439 5.1660003e-39
0.57232904 -0.29460725 0.75391477 5.2585547e-39
0.5365271 -0.28508407 0.75518632 3.2287542e-39
0.54094762 -0.28251305 0.7591725 3.5053453e-39
0.55565631 -0.28457212 0.75926489 5.0738033e-39
0.56483763 -0.28502828 0.75670433 5.1660003e-39
0.57316566 -0.28444961 0.75392538 5.1660003e-39
0.53749537 -0.27463743 0.75430137 3.2287528e-39
0.54251838 -0.27383822 0.75900441 3.6901051e-39
0.55476302 -0.27497193 0.75916559 5.0738019e-39
0.56476992 -0.27505228 0.75673985 5.1660003e-39
0.57384026 -0.27450976 0.75384778 5.1660017e-39
0.53793019 -0.26487467 0.75325334 3.0443545e-39
0.54211223 -0.26432997 0.75843263 3.7823021e-39
0.5549258 -0.26516345 0.75902349 5.0738019e-39
0.56459183 -0.26500881 0.75689602 5.0738047e-39
0.57466453 -0.26489711 0.75357699 5.1660017e-39
0.5387724 -0.25537255 0.75264645 2.8599605e-39
0.54312515 -0.25438893 0.75807416 3.6901037e-39
0.55598783 -0.25541431 0.75900298 5.0738047e-39
0.56476992 -0.25522184 0.756868 5.0738047e-39
0.5741117 -0.25470299 0.75432134 5.1660003e-39
0.58149248 -0.2537702 0.75108874 5.2581959e-39
0.5396415 -0.24690004 0.75142765 2.8599577e-39
0.54341948 -0.24451891 0.75691646 3.5057096e-39
0.55707031 -0.24513115 0.75937676 5.1660003e-39
0.56435281 -0.24549554 0.75744152 5.1659989e-39
0.57450521 -0.24521767 0.7548058 5.1659989e-39
0.58182788 -0.24474268 0.75242621 5.1660017e-39
0.54473388 -0.23482393 0.75629926 3.5053453e-39
0.55616254 -0.23571499 0.7598207 4.9816034e-39
0.56544679 -0.23516913 0.7582764 5.1660003e-39
0.57532716 -0.23495305 0.75556171 5.1660003e-39
0.58226717 -0.23514895 0.75330848 5.1660017e-39
0.54631245 -0.22494678 0.75554842 3.3209512e-39
0.55261838 -0.22346987 0.75975341 4.612451e-39
0.56624943 -0.22593109 0.75913876 5.1660003e-39
0.5744918 -0.22487573 0.75695962 5.0741606e-39
0.58361185 -0.22371979 0.75364685 5.1663604e-39
0.54735154 -0.214843 0.7541756 3.0443559e-39
0.55237192 -0.21575283 0.75922054 4.1514574e-39
0.56875533 -0.21567452 0.75962234 1.0880989e-38
0.57496279 -0.2148367 0.75801539 1.1525992e-38
0.58307618 -0.21459772 0.75503391 7.193923e-39
0.54837984 -0.20494762 0.75383127 2.9521589e-39
0.55167818 -0.20367222 0.7583819 3.4131511e-39
0.57521379 -0.20513654 0.75854403 1.3358619e-38
0.58390009 -0.20509586 0.75573826 1.1430888e-38
0.54892331 -0.19537707 0.75247896 2.8599577e-39
0.55176991 -0.1945212 0.75755173 3.2291129e-39
0.57596421 -0.19543128 0.75851482 1.1049398e-38
0.58486235 -0.19472802 0.75578052 8.4802898e-39
0.5900293 -0.19953291 0.75252444 5.1660017e-39
0.54956555 -0.18844333 0.75043273 2.8599577e-39
0.55278468 -0.18476477 0.7556479 3.0443545e-39
0.57634765 -0.18464004 0.75829464 1.1419624e-38
0.58561671 -0.18492985 0.75508058 1.6219573e-38
0.55515975 -0.17465892 0.75521672 3.0443545e-39
0.56926703 -0.17169434 0.75961179 1.1986595e-38
0.57449251 -0.17506893 0.75829905 1.391722e-38
0.58432269 -0.17523704 0.75485253 1.5113597e-38
0.5900631 -0.17484394 0.7524876 1.9453289e-38
0.55695522 -0.16562058 0.75406629 3.1365558e-39
0.56495988 -0.1644662 0.75725389 4.1510973e-39
0.57423347 -0.16467483 0.7573719 4.5195e-39
0.58216596 -0.16589557 0.75546604 5.8106214e-39
0.56535178 -0.15832095 0.75182343 3.6901065e-39
0.57411379 -0.15848589 0.75419158 3.7823035e-39
0.54844844 -0.33291921 0.76025856 2.6751979e-39
0.55042899 -0.33191752 0.76077735 2.3986124e-39
0.54899681 -0.32867825 0.76018441 8.114705e-39
0.55069304 -0.32986975 0.76047194 3.9666808e-39
0.5394218 -0.30220211 0.76012826 4.7972066e-39
0.54522759 -0.30361214 0.76048356 4.7972094e-39
0.55142069 -0.30220315 0.76038265 5.0738019e-39
0.53931445 -0.29553559 0.76025516 4.5202511e-39
0.54437137 -0.2948842 0.7610088 4.7050109e-39
0.55156916 -0.29484922 0.76067364 5.0738047e-39
0.54496819 -0.28518185 0.76080006 4.7046494e-39
0.55132794 -0.28675401 0.76030189 5.0738019e-39
0.5457601 -0.27539429 0.7604419 4.704648e-39
0.55452126 -0.27515 0.76597047 4.797208e-39
0.54707009 -0.26545212 0.76085031 4.6128097e-39
0.55105644 -0.26042807 0.76005161 5.1660003e-39
0.54825556 -0.25609276 0.7603699 4.4280513e-39
0.55102783 -0.25440764 0.76040727 4.9816062e-39
0.54909992 -0.24660914 0.76006484 4.7046466e-39
0.5520426 -0.24476703 0.76041621 4.797208e-39
0.55436826 -0.23486112 0.76034302 4.797208e-39
0.55651683 -0.22587565 0.760194 4.797208e-39
0.56193906 -0.22452968 0.76053911 4.7968478e-39
0.55678266 -0.2135655 0.76046509 4.796845e-39
0.56361955 -0.21486557 0.76096767 6.8251363e-39
0.55619109 -0.20506082 0.76119524 4.5198882e-39
0.56521744 -0.20515375 0.76074159 1.5120487e-38
0.55649382 -0.19498283 0.76181632 4.2436558e-39
0.56477493 -0.19519554 0.76132631 1.4198542e-38
0.57085723 -0.19376992 0.76008707 1.4100154e-38
0.55728209 -0.18558909 0.76151294 3.8748621e-39
0.56436986 -0.1849499 0.7616992 1.5304877e-38
0.57072204 -0.18617459 0.76023775 1.5670007e-38
0.55884296 -0.17600162 0.76098907 3.5979053e-39
0.56456494 -0.17512257 0.7609157 1.4105983e-38
0.56378281 -0.16917156 0.76014858 4.6124482e-39
0.54669946 -0.29425806 0.77111733 2.3986082e-39
