# .PCD v0.7 - Point Cloud Data file format
VERSION 0.7
FIELDS x y z rgb
SIZE 4 4 4 4
TYPE F F F F
COUNT 1 1 1 1
WIDTH 1003
HEIGHT 1
VIEWPOINT 0 0 0 1 0 0 0
POINTS 1003
DATA ascii
0.38263792 -0.49531081 0.62151283 1.1155671e-38
0.55044949 -0.45122328 0.62040156 1.097128e-38
0.67860347 -0.44255137 0.62170112 1.1063476e-38
0.45850191 -0.43082869 0.62115282 1.097128e-38
0.51913363 -0.32437071 0.62264001 4.0581211e-39
0.52093321 -0.3283177 0.62562847 2.2142071e-39
0.75292927 -0.32490107 0.62158358 1.097128e-38
0.51881731 -0.3154158 0.62405133 3.689347e-39
0.51892936 -0.3045111 0.62599254 2.9521519e-39
0.52006662 -0.3013491 0.62184691 3.2287346e-39
0.3819226 -0.29269058 0.62015706 1.0879084e-38
0.51956248 -0.29667658 0.62718022 2.8599577e-39
0.52048177 -0.29414919 0.6242764 3.3205701e-39
0.81224036 -0.29336512 0.62035847 1.097128e-38
0.37293398 -0.28304815 0.62164903 1.0879084e-38
0.52117437 -0.28536344 0.62582701 3.0439874e-39
0.52250087 -0.27540216 0.62596089 3.3205701e-39
0.44742778 -0.26908147 0.62118006 1.0879084e-38
0.52406818 -0.26471782 0.62531465 3.5971528e-39
0.33061478 -0.25512427 0.62103122 7.9288242e-39
0.52559447 -0.25461623 0.6255281 4.5190993e-39
0.52697027 -0.24507682 0.6254003 4.9797117e-39
0.52819592 -0.23505397 0.6256007 6.4544648e-39
0.52917016 -0.22635177 0.62610519 6.9157975e-39
0.53065038 -0.22332405 0.62213272 5.2562789e-39
0.52977228 -0.21933372 0.62809736 9.6809237e-39
0.53075361 -0.21486306 0.6265887 8.390552e-39
0.73002118 -0.21375918 0.62027836 1.097128e-38
0.53188562 -0.20447755 0.62638247 6.4548207e-39
0.53332812 -0.19461848 0.62541062 3.228359e-39
0.74316424 -0.19726749 0.62017411 1.097128e-38
0.52916378 -0.18495618 0.62167132 9.6805439e-39
0.53525603 -0.18491685 0.62498039 2.951768e-39
0.53802276 -0.17489602 0.62525332 4.3235102e-39
0.38566506 -0.16781917 0.62095082 1.0879084e-38
0.53984547 -0.1694928 0.62560922 5.6999399e-39
0.54184395 -0.1644529 0.62501949 5.7928571e-39
0.5560537 -0.16113721 0.62274754 2.0294571e-39
0.56352687 -0.16302218 0.62317699 2.306414e-39
0.57145238 -0.16494112 0.62144226 2.0298215e-39
0.38221335 -0.15997511 0.62175155 1.0879084e-38
0.5453229 -0.15895027 0.62290967 4.4203862e-39
0.55279362 -0.15951596 0.62072134 1.7528618e-39
0.40497735 -0.12488663 0.62043965 1.0879084e-38
0.53690767 -0.12893431 0.62224013 1.0879084e-38
0.53642058 -0.09129931 0.62983996 1.1339339e-38
0.45346087 -0.08949472 0.6211859 1.0879084e-38
0.52962995 -0.080780454 0.62737459 1.1708842e-38
0.5308845 -0.081841752 0.6255374 1.1708842e-38
0.41045105 -0.071253486 0.62218195 1.0786889e-38
0.51896179 -0.070427805 0.62491292 8.9429761e-39
0.52428299 -0.07564424 0.62543637 1.0418103e-38
0.66434032 -0.070087954 0.62130123 1.0879084e-38
0.50881696 -0.060098268 0.62474597 8.9429761e-39
0.51390707 -0.065203734 0.62547642 8.9429761e-39
0.86486948 -0.067493603 0.62154227 1.0879084e-38
0.50459421 -0.054757942 0.62577409 1.0510302e-38
0.51134384 -0.057229303 0.62589699 1.0786889e-38
0.49792266 -0.042831521 0.6265732 1.1616285e-38
0.50094497 -0.047950957 0.6246019 1.1616648e-38
0.4976342 -0.036622439 0.62629974 1.1524452e-38
0.50206095 -0.032529101 0.62381601 1.1524091e-38
0.70597923 -0.035689473 0.62013882 1.0879084e-38
0.50713301 -0.027089773 0.625503 1.1432254e-38
0.51258546 -0.022128085 0.62493604 1.1431894e-38
0.83722615 -0.029486537 0.62070757 1.0879084e-38
0.4295963 -0.010725853 0.62199664 1.0786889e-38
0.51793814 -0.017545061 0.62503898 1.1524089e-38
0.52323425 -0.013008488 0.62473428 1.0138626e-38
0.53026712 -0.013048872 0.62160295 1.0694692e-38
0.50843668 -0.0067036054 0.62060767 1.0786889e-38
0.52804822 -0.0087570855 0.62548757 7.5520865e-39
0.53456706 -0.0032253489 0.6252231 7.366975e-39
0.53937817 0.0010456113 0.62628835 6.6279624e-39
0.54452121 0.0056761494 0.62517154 7.3673351e-39
0.72991192 0.0062514991 0.62206745 1.0879084e-38
0.53957862 0.011234218 0.62938321 1.0786889e-38
0.55486304 0.015046302 0.62514246 6.9978281e-39
0.56006759 0.019506905 0.62498909 7.2747779e-39
0.56595671 0.024786659 0.6256988 6.9974666e-39
0.57102895 0.029546073 0.62479734 1.1153864e-38
0.57599121 0.034102269 0.62578362 1.1523366e-38
0.58263302 0.038927861 0.62447155 1.142973e-38
0.58821344 0.042110056 0.62492818 1.1337176e-38
0.59222853 0.04417384 0.62427825 1.12439e-38
0.70416993 0.051050123 0.62205064 1.0786889e-38
0.63714916 0.087143354 0.62214297 1.0786889e-38
0.77826196 0.087566979 0.62080246 1.0786889e-38
0.68935543 0.15706547 0.6220628 1.0786889e-38
0.36558729 0.17274985 0.62245494 7.7444329e-39
0.76469541 0.18726638 0.6203301 1.0786889e-38
0.4543891 0.19796056 0.62859654 3.8642655e-39
0.44741639 0.20646977 0.62667209 4.2344913e-39
0.45140839 0.20159017 0.62650478 3.9571828e-39
0.43863183 0.21849756 0.62624764 4.2344927e-39
0.4423677 0.21335365 0.626441 4.2348529e-39
0.51813948 0.21214746 0.62173575 1.0786889e-38
0.43431625 0.22479436 0.62709123 4.0493798e-39
0.42906058 0.23431019 0.6287663 3.77243e-39
0.43092024 0.23071146 0.62587881 4.1419356e-39
0.71120644 0.2955777 0.6204322 1.0694693e-38
0.71889007 0.33771506 0.62089443 1.0694693e-38
0.73422372 0.33090156 0.62066567 1.0694693e-38
0.81129289 0.35691062 0.62050581 1.0694693e-38
0.80018878 0.3789615 0.62111241 1.0694693e-38
0.49924445 0.38827541 0.62120759 1.0694693e-38
0.36654484 0.39595681 0.62073642 1.0602497e-38
0.7068333 0.42486289 0.62044168 1.0694693e-38
0.31808034 0.45202237 0.62227052 7.467846e-39
0.38961142 0.47565329 0.62144375 1.0694693e-38
0.52362287 -0.33064544 0.63060564 1.3840653e-39
0.51729327 -0.32303813 0.63735521 2.9517974e-39
0.52232593 -0.32983369 0.63805652 2.5833624e-39
0.51657444 -0.31465012 0.63627076 2.8599605e-39
0.51874608 -0.30508 0.63482547 2.8599577e-39
0.52326822 -0.30347446 0.6360271 2.9521575e-39
0.51982111 -0.29749349 0.63064677 2.8599577e-39
0.52115148 -0.29466417 0.6353718 2.8599577e-39
0.5225094 -0.28497702 0.6349318 2.8599577e-39
0.52390331 -0.27475131 0.63498068 3.1365404e-39
0.52513659 -0.26509973 0.63486326 7.1923858e-39
0.52654952 -0.25512356 0.63500565 1.1524457e-38
0.52792543 -0.24472564 0.63532132 1.1616651e-38
0.52869296 -0.23528707 0.63501751 1.1708845e-38
0.5295338 -0.22546037 0.63423437 1.1708845e-38
0.53007197 -0.22079462 0.63645458 1.1801041e-38
0.52999431 -0.21911669 0.63241744 1.1801041e-38
0.53074098 -0.21469422 0.63571429 1.1801041e-38
0.53223461 -0.20495489 0.63485211 1.1616651e-38
0.5336324 -0.19507398 0.63505483 7.7451952e-39
0.53596431 -0.18506199 0.63508713 2.8599577e-39
0.53845143 -0.17545539 0.63497764 3.0425441e-39
0.54030544 -0.17061542 0.63697511 2.9510701e-39
0.54228336 -0.16486187 0.63509446 5.1467871e-39
0.54440957 -0.15956907 0.6353119 6.2448278e-39
0.52796012 -0.083175421 0.63163048 1.2077266e-38
0.53286827 -0.08162868 0.6318267 1.5211916e-38
0.51947981 -0.071421199 0.63393229 8.942616e-39
0.52496964 -0.07607726 0.63355315 1.1984349e-38
0.50970984 -0.061021749 0.63600421 8.9422558e-39
0.51424074 -0.065880008 0.63494956 8.9418957e-39
0.50512666 -0.055250462 0.63504916 1.032555e-38
0.49857834 -0.043501638 0.6346482 1.1522649e-38
0.50108987 -0.048221961 0.63516539 1.1616286e-38
0.51150835 -0.043685004 0.63442993 1.0786889e-38
0.4893373 -0.034920529 0.63586587 8.7297741e-39
0.49740556 -0.036873735 0.6354695 1.1150628e-38
0.50207728 -0.031721901 0.63504982 1.1149908e-38
0.50706887 -0.026833069 0.6350866 1.1057712e-38
0.51293606 -0.022054357 0.6351459 1.0410542e-38
0.51748109 -0.018105417 0.63442296 1.0595293e-38
0.52345091 -0.01330349 0.63417387 8.8406827e-39
0.52863163 -0.007973915 0.63403106 6.808039e-39
0.53407508 -0.0038412341 0.63483238 6.6204066e-39
0.53865314 0.00011765445 0.63518548 6.8033601e-39
0.54481447 0.0057120989 0.63475156 6.7118833e-39
0.55473405 0.014611324 0.63468087 6.8033601e-39
0.5603447 0.019525357 0.63520467 7.0777904e-39
0.56558031 0.024198193 0.63511229 7.2621816e-39
0.57127416 0.02949547 0.63412678 9.8487222e-39
0.57614475 0.033705216 0.6344806 1.0218228e-38
0.58238006 0.038554844 0.63593215 9.8447635e-39
0.58688474 0.04211881 0.63583255 9.8440446e-39
0.59190357 0.04567764 0.63568884 9.7507686e-39
0.45527944 0.19719297 0.63513803 5.3459032e-39
0.46243191 0.19447881 0.63502675 5.6192335e-39
0.44715577 0.20573425 0.634965 4.884925e-39
0.45077452 0.20083353 0.63505328 5.0693205e-39
0.43865898 0.21832752 0.63430268 4.6998107e-39
0.44229177 0.21327271 0.63491428 4.9771221e-39
0.43396375 0.22492363 0.6354211 5.0700408e-39
0.428525 0.23554292 0.63555384 5.1625993e-39
0.43045166 0.23060414 0.63519514 4.8852866e-39
0.42830229 0.24261539 0.63581955 5.4395464e-39
0.431436 0.24767223 0.63776433 5.7172179e-39
0.42021316 0.25049961 0.63564193 1.0694693e-38
0.50756925 -0.32767987 0.64347357 1.0879084e-38
0.51818424 -0.32220963 0.64410412 3.2287472e-39
0.52050954 -0.32701379 0.64253896 2.7674005e-39
0.51771933 -0.31409734 0.64533252 2.8599605e-39
0.51920938 -0.30709833 0.6439777 2.8599577e-39
0.52074581 -0.30287996 0.64599806 2.8599577e-39
0.52267843 -0.29512471 0.64489734 2.8599577e-39
0.5241878 -0.28497502 0.6449945 2.8599577e-39
0.51556307 -0.27214879 0.64506316 6.0766103e-39
0.52518606 -0.27496889 0.64496076 4.8875203e-39
0.52643859 -0.26499495 0.64488262 1.1616651e-38
0.52782416 -0.25517792 0.64511424 1.1708845e-38
0.5291521 -0.24527551 0.64533156 1.1801041e-38
0.52963793 -0.23572201 0.64267528 1.1801041e-38
0.5304094 -0.23436196 0.64710921 1.1801041e-38
0.52990651 -0.22715501 0.64081842 1.1801041e-38
0.53076893 -0.2248289 0.6455093 1.1801041e-38
0.53145224 -0.21516678 0.64537835 1.1801041e-38
0.53264874 -0.20489855 0.64478546 1.1801041e-38
0.53457963 -0.1950416 0.64475787 1.1247872e-38
0.53670019 -0.18501428 0.6447956 3.1365404e-39
0.53888035 -0.17694807 0.64478803 2.8599577e-39
0.54077947 -0.17220379 0.64575636 2.8599577e-39
0.53471881 -0.16208032 0.64203471 2.8599577e-39
0.54376715 -0.16486578 0.64464611 2.9514316e-39
0.55199629 -0.16132388 0.64254975 3.5053467e-39
0.54578817 -0.15952468 0.64296043 4.5064764e-39
0.52964014 -0.080749191 0.64800948 9.0945952e-39
0.53314966 -0.083274372 0.64593607 9.4676993e-39
0.5169065 -0.070723824 0.64410335 9.200836e-39
0.52399337 -0.075476401 0.64366019 9.2901506e-39
0.50895584 -0.060397476 0.64519536 9.2930317e-39
0.51392865 -0.065737598 0.64482391 8.7340957e-39
0.50573397 -0.05499706 0.64412183 8.9156059e-39
0.49876678 -0.042715017 0.64532059 9.1921928e-39
0.50162196 -0.047185857 0.64252537 9.1918327e-39
0.49818084 -0.037293609 0.64538836 9.0971161e-39
0.50245321 -0.03252437 0.64573389 9.0023996e-39
0.5073446 -0.027466565 0.64537895 7.8060172e-39
0.51231378 -0.022816673 0.6458987 6.6121557e-39
0.51741153 -0.01830627 0.6447835 6.3370094e-39
0.52351493 -0.012958439 0.6445567 6.7958267e-39
0.52874941 -0.0083103087 0.64520198 8.4488656e-39
0.53380847 -0.0038581586 0.64519632 8.7243721e-39
0.53849763 0.0002845563 0.64498669 8.7243721e-39
0.54494852 0.0061293175 0.64499813 8.7243721e-39
0.55483204 0.015033232 0.64515531 8.7243721e-39
0.5600484 0.019539401 0.64243519 8.7243721e-39
0.56580752 0.024746539 0.64507174 8.7243721e-39
0.57105219 0.029431822 0.64529312 8.7243721e-39
0.57575059 0.033388004 0.64438432 8.7243721e-39
0.58151221 0.038641103 0.64641911 8.7250924e-39
0.58686203 0.042894389 0.64623803 8.9109242e-39
0.59122705 0.046323299 0.64602208 9.0038401e-39
0.45567378 0.19775829 0.64334035 6.5509596e-39
0.46148148 0.19477205 0.64476049 7.1959633e-39
0.44716519 0.20581046 0.64472091 6.0896171e-39
0.45162678 0.20138901 0.64658046 6.3665656e-39
0.46222401 0.20707417 0.64144379 6.7349879e-39
0.43889281 0.21826302 0.64485621 6.1821757e-39
0.44247103 0.21321076 0.64539784 6.1821757e-39
0.43414688 0.22487547 0.64508921 6.1821757e-39
0.42851332 0.23538569 0.64491564 6.1821757e-39
0.43025678 0.23069704 0.64697629 6.1821757e-39
0.42888975 0.24306674 0.64386541 6.1818114e-39
0.43123055 0.24723017 0.64502448 6.5476946e-39
0.43462825 0.25123176 0.64565665 6.6388056e-39
0.52768272 -0.3347643 0.65345198 2.9521575e-39
0.51831388 -0.32378206 0.65267998 3.0443573e-39
0.52091813 -0.32448786 0.6566878 3.0439944e-39
0.51881832 -0.31611404 0.65135109 3.5975437e-39
0.5212732 -0.31474072 0.65512872 3.2287528e-39
0.51945078 -0.30983973 0.65043616 2.8599577e-39
0.5217306 -0.30519888 0.65427965 3.136553e-39
0.52377111 -0.29506671 0.65501195 2.8599577e-39
0.52530831 -0.28473723 0.65516269 2.8599577e-39
0.52631438 -0.27526087 0.65494394 7.7451938e-39
0.52753001 -0.26514706 0.65520942 1.0047879e-38
0.52882868 -0.25484136 0.65474039 9.5876224e-39
0.53002602 -0.25041348 0.65955245 8.0188534e-39
0.52962226 -0.2476062 0.65328181 9.4025109e-39
0.53037226 -0.24392445 0.65609765 8.5723887e-39
0.53128898 -0.23490286 0.65493178 8.9411698e-39
0.53229719 -0.22490685 0.65503275 8.8486127e-39
0.53304768 -0.21498361 0.65556842 9.6787349e-39
0.53359628 -0.20518628 0.65481895 1.1524094e-38
0.53488529 -0.19461952 0.65529549 8.7589758e-39
0.53707707 -0.18485628 0.65496075 2.8599577e-39
0.53928655 -0.17789501 0.6551134 2.8599577e-39
0.54095358 -0.17300561 0.65504158 2.8599577e-39
0.54416311 -0.16462037 0.65483135 2.8599577e-39
0.55277503 -0.1608042 0.65518737 2.8599577e-39
0.54901838 -0.1589974 0.65602708 2.8599577e-39
0.55233419 -0.15704258 0.65820283 2.8599577e-39
0.53346676 -0.082386345 0.65161383 9.2793466e-39
0.5191195 -0.071438432 0.65495205 8.7243721e-39
0.52348471 -0.075606599 0.65418804 8.7243721e-39
0.50994217 -0.061192691 0.65750968 8.7243721e-39
0.51402217 -0.065801829 0.65530384 8.7243721e-39
0.53144717 -0.067532532 0.65644771 8.8216096e-39
0.49813801 -0.052454557 0.65530753 6.6121557e-39
0.5049032 -0.055328816 0.65522593 8.7243721e-39
0.51465249 -0.057958264 0.65009898 1.0879084e-38
0.49835095 -0.044396449 0.6552518 9.6618142e-39
0.49922603 -0.039206851 0.65041137 9.1853503e-39
0.50299776 -0.03480541 0.65416056 7.9896882e-39
0.50807762 -0.027419867 0.65562546 6.5203202e-39
0.51292056 -0.022726301 0.65512842 6.7065136e-39
0.51808006 -0.018036878 0.65403253 6.7958267e-39
0.52391827 -0.012930907 0.65449047 7.8060172e-39
0.52872252 -0.008328638 0.65559298 8.7243721e-39
0.53381997 -0.0034964932 0.6546008 8.7243721e-39
0.53893101 0.001245864 0.65516031 8.7243721e-39
0.54476279 0.0064833201 0.65531754 8.7243721e-39
0.55516118 0.015708575 0.65487158 8.7243721e-39
0.5647561 0.02416411 0.65510964 8.7243721e-39
0.57057875 0.029373227 0.65528363 8.7243721e-39
0.57593995 0.034176033 0.6548937 8.7243721e-39
0.58142197 0.039034169 0.65453845 8.7243721e-39
0.58640134 0.043392275 0.65493071 8.7243721e-39
0.45511237 0.19681449 0.6557225 7.0112105e-39
0.46502143 0.19454528 0.65474498 7.6536848e-39
0.47044539 0.19524725 0.65948087 5.7161305e-39
0.44747725 0.20639868 0.65478921 6.2743699e-39
0.45091122 0.20115915 0.65479356 6.7349851e-39
0.43910635 0.21841329 0.65487939 6.1821757e-39
0.44256803 0.21362172 0.65501326 6.1821757e-39
0.43444353 0.22479542 0.65466475 6.5505953e-39
0.44012421 0.22663343 0.65936011 6.1821757e-39
0.42901444 0.23651347 0.65338284 6.3665656e-39
0.43078735 0.23246209 0.65570939 6.7349851e-39
0.42842844 0.24289994 0.65531051 6.3658425e-39
0.43263406 0.248558 0.65602684 5.7179395e-39
0.43546617 0.25149044 0.6540249 6.36186e-39
0.52261651 -0.33046162 0.66464925 3.1365516e-39
0.51962197 -0.32420167 0.66606593 2.2142099e-39
0.52244294 -0.32960314 0.66753244 3.1365516e-39
0.50803781 -0.31653148 0.66822463 3.0443545e-39
0.51981348 -0.31617728 0.66485983 2.8599577e-39
0.5201326 -0.31335807 0.6674903 2.8599577e-39
0.51989841 -0.30897579 0.66319567 2.8599577e-39
0.52134687 -0.30426905 0.66551977 2.8599577e-39
0.52411902 -0.29517689 0.6652621 2.8599577e-39
0.52650154 -0.2853303 0.66500437 4.3347122e-39
0.52766269 -0.27475366 0.66467583 1.1155675e-38
0.52882189 -0.26522422 0.66515201 7.186206e-39
0.52960145 -0.25716579 0.66332424 7.0018134e-39
0.53045857 -0.2531994 0.66641819 5.892219e-39
0.53141606 -0.24469623 0.66492116 5.8922176e-39
0.53257412 -0.23510391 0.66509861 5.8922176e-39
0.53369385 -0.22500522 0.6649642 6.2620833e-39
0.53472799 -0.21499775 0.66538167 6.817062e-39
0.53525925 -0.20503947 0.66528094 8.5716642e-39
0.53603715 -0.1952505 0.6650548 1.0971647e-38
0.53811198 -0.18490465 0.66425276 3.1365404e-39
0.53957611 -0.17873628 0.66532344 2.8599577e-39
0.54118747 -0.17366779 0.66521639 2.8599577e-39
0.54463071 -0.16494763 0.66537344 2.8599577e-39
0.54904991 -0.15857682 0.66622394 2.8599577e-39
0.55395442 -0.15706798 0.66363621 2.9521603e-39
0.56238139 -0.15817666 0.66467214 3.1365544e-39
0.52893651 -0.081289411 0.66504288 8.7243721e-39
0.53139091 -0.083688609 0.6655969 8.7243721e-39
0.51900214 -0.071018308 0.66578573 8.7243721e-39
0.52368331 -0.075751305 0.66424495 8.7243721e-39
0.50958389 -0.060690019 0.66470069 8.7243721e-39
0.51412976 -0.06573052 0.66518188 8.7243721e-39
0.52359635 -0.068505935 0.66631055 1.0778603e-38
0.50431097 -0.05472593 0.66482395 8.9998786e-39
0.49812594 -0.045063019 0.66424173 9.7363633e-39
0.50182384 -0.046178162 0.66794837 1.001151e-38
0.49852744 -0.03723852 0.66647142 9.0917141e-39
0.50217628 -0.031496763 0.66699082 5.8774718e-39
0.50661141 -0.026988069 0.6659137 6.7958267e-39
0.51258886 -0.022174926 0.66434902 6.4284847e-39
0.5234521 -0.022563605 0.66785288 1.105303e-38
0.51770627 -0.017678551 0.66498047 7.4386752e-39
0.52330804 -0.01260726 0.66537315 8.7243721e-39
0.52870101 -0.0077345446 0.66480505 8.7243721e-39
0.53371221 -0.0032347809 0.66502613 8.7243721e-39
0.53874892 0.0012991989 0.66526526 8.7243721e-39
0.54477537 0.0065231295 0.66424322 8.6325366e-39
0.54845941 0.010032167 0.66603225 8.7243721e-39
0.55488092 0.015585992 0.66536146 8.7243721e-39
0.56521964 0.024704857 0.6644671 8.7243721e-39
0.57024741 0.029317362 0.66493714 8.7243721e-39
0.57555652 0.034158476 0.6654073 8.7243721e-39
0.58147407 0.03921286 0.66631222 8.9080431e-39
0.5865559 0.042964276 0.66515321 8.9998786e-39
0.59288186 0.045552641 0.66771793 9.4590561e-39
0.45601705 0.19672048 0.66496545 7.0112105e-39
0.46089154 0.19404727 0.66791165 8.9458656e-39
0.44745985 0.20621167 0.66467583 7.563664e-39
0.45101649 0.20122941 0.66513228 7.0112119e-39
0.43841228 0.21837451 0.66467786 3.5103269e-39
0.44261125 0.21343827 0.66519123 3.5103269e-39
0.43423349 0.22488914 0.66519576 5.7219234e-39
0.42883578 0.23630767 0.66571003 7.1034061e-39
0.43044186 0.23094282 0.66490036 8.1164734e-39
0.42910567 0.24240109 0.66519731 6.1821743e-39
0.43171582 0.24708971 0.663948 5.3487941e-39
0.43667153 0.25260663 0.66508174 5.9012406e-39
0.51990253 -0.32428399 0.67162228 2.3060468e-39
0.52061522 -0.32388464 0.67618501 2.3986082e-39
0.52033448 -0.31505144 0.67450708 2.8599577e-39
0.52178538 -0.30498454 0.67477953 2.8599577e-39
0.53446758 -0.30340374 0.67714757 2.8599577e-39
0.52478361 -0.29487133 0.67491299 2.8599577e-39
0.52732587 -0.28515217 0.67490155 9.9575064e-39
0.51720035 -0.27786398 0.67941183 8.5742202e-39
0.52862924 -0.27524278 0.67511988 1.1708845e-38
0.52952695 -0.26615968 0.67340159 7.6464625e-39
0.53036982 -0.26280874 0.67688519 7.3698742e-39
0.53115022 -0.25511986 0.67498553 5.8914988e-39
0.52482098 -0.24591145 0.6793443 9.4932646e-39
0.53254163 -0.24538627 0.67489517 5.983693e-39
0.53406513 -0.23497258 0.67491597 5.8914988e-39
0.53542686 -0.22484484 0.67496997 5.983693e-39
0.53629911 -0.21520589 0.67480898 5.983693e-39
0.52987474 -0.20109446 0.67176753 7.6529996e-39
0.53686595 -0.2051219 0.67489952 7.7386582e-39
0.5375331 -0.19482324 0.67540842 1.1708845e-38
0.5297792 -0.1809572 0.67902398 8.8511714e-39
0.53838527 -0.18526238 0.67451739 3.9659339e-39
0.54030871 -0.18173341 0.67866349 2.8599577e-39
0.53964889 -0.17911786 0.67134392 2.8599577e-39
0.54236937 -0.17501192 0.67543751 2.8599577e-39
0.54664207 -0.16511776 0.67512769 2.8599577e-39
0.54946929 -0.15878062 0.67510933 2.8599577e-39
0.55045933 -0.15676102 0.67586911 2.8599577e-39
0.52892607 -0.08122535 0.67379141 9.4709391e-39
0.53225642 -0.083827592 0.67486429 9.8454838e-39
0.51908714 -0.071223713 0.67354596 8.8241306e-39
0.52400547 -0.076416738 0.67546934 9.7522091e-39
0.50876999 -0.060116373 0.67247236 8.8183684e-39
0.5138225 -0.065600902 0.67516369 8.9210079e-39
0.50427002 -0.05485883 0.6751228 9.474902e-39
0.49694467 -0.044495974 0.67685634 9.578982e-39
0.49858057 -0.038010698 0.67409086 6.0647455e-39
0.50264478 -0.033300351 0.67414373 6.7958267e-39
0.50774848 -0.02701314 0.67393231 6.2448137e-39
0.51274997 -0.021817239 0.67464536 7.1631687e-39
0.51765114 -0.017342284 0.67555803 8.6325366e-39
0.52277386 -0.012736413 0.67465991 8.7243721e-39
0.52767491 -0.0083671873 0.67464632 8.7243721e-39
0.5335958 -0.0030217278 0.67564112 8.7243721e-39
0.53884715 0.0016712683 0.67446434 8.7243721e-39
0.54389161 0.0062141698 0.67474192 8.7243721e-39
0.54881352 0.01065251 0.67640114 8.7243721e-39
0.55488783 0.015865438 0.67469674 8.7243721e-39
0.56489319 0.024561061 0.6743288 9.0953155e-39
0.57017595 0.02925846 0.6754142 8.7243721e-39
0.57520282 0.033983517 0.67523485 8.7243721e-39
0.58061934 0.039069019 0.67644018 8.7243721e-39
0.58326936 0.041522771 0.67828614 8.7243721e-39
0.45587879 0.1969171 0.67516708 7.6558568e-39
0.46415925 0.19412206 0.67343515 7.7466021e-39
0.44751525 0.20638269 0.67519397 6.181817e-39
0.45108595 0.20141818 0.6750195 6.4584011e-39
0.43896511 0.21869418 0.67513382 2.5826197e-39
0.44259819 0.21377735 0.67478299 2.9510379e-39
0.43435472 0.22513661 0.67500836 4.3364835e-39
0.42970064 0.23597975 0.67274898 6.1821757e-39
0.43055138 0.23298042 0.67554581 6.1821757e-39
0.42939508 0.24305996 0.67518234 6.2740098e-39
0.43195629 0.24805427 0.67643124 6.3629446e-39
0.4360857 0.25194663 0.67540312 6.638807e-39
0.52452767 -0.33061883 0.68540585 1.3837052e-39
0.52285773 -0.32470018 0.68423885 2.2142099e-39
0.52095109 -0.31501338 0.68425477 2.8599577e-39
0.52190256 -0.3051275 0.68519115 2.8599577e-39
0.53335363 -0.30658406 0.68838513 4.9800746e-39
0.52497685 -0.29513595 0.68494517 2.8599577e-39
0.52795857 -0.28504902 0.68502861 1.0602869e-38
0.5294162 -0.27567062 0.68484026 1.1801041e-38
0.53009832 -0.27102363 0.68615764 1.1801041e-38
0.52998602 -0.26920938 0.68054694 1.1708845e-38
0.53083885 -0.26506835 0.68548727 1.1708845e-38
0.53210568 -0.25484368 0.68479121 1.0324104e-38
0.54160041 -0.25906146 0.68624032 1.1708845e-38
0.5248844 -0.24897823 0.68412751 6.9280196e-39
0.53359216 -0.24478565 0.68507701 9.2163134e-39
0.53505093 -0.2352521 0.68494475 8.8471693e-39
0.53658009 -0.22532167 0.68496633 9.1241163e-39
0.53785449 -0.21463305 0.68491834 9.9549616e-39
0.54796779 -0.21876004 0.68563116 1.115495e-38
0.53826123 -0.20511849 0.68465775 1.1432257e-38
0.53869319 -0.19524492 0.68485594 1.0786899e-38
0.53935796 -0.18687573 0.68410033 4.6109376e-39
0.54045588 -0.18273756 0.6866312 2.8599577e-39
0.54223108 -0.17518055 0.68582219 2.8599577e-39
0.54532391 -0.16498218 0.68680602 2.8599577e-39
0.54870564 -0.15858322 0.68494755 2.8599577e-39
0.55393726 -0.15657298 0.68620616 2.9521575e-39
0.52877009 -0.081010342 0.68628895 1.2722633e-38
0.53314161 -0.083746165 0.68653589 1.3921539e-38
0.51827657 -0.071278006 0.68527508 8.9418957e-39
0.52355313 -0.076222636 0.68476826 1.0878003e-38
0.50899148 -0.060811929 0.68512732 8.9418957e-39
0.51320744 -0.065660276 0.68564743 8.9422558e-39
0.50443357 -0.055185415 0.68514979 1.0694692e-38
0.49774262 -0.044276938 0.68376994 1.1431535e-38
0.50077802 -0.048621658 0.68564147 1.1616286e-38
0.49785233 -0.037036639 0.68708837 8.5695076e-39
0.5027808 -0.032562446 0.68552309 8.8349332e-39
0.50754774 -0.02655502 0.68523937 8.0919661e-39
0.51239735 -0.02176122 0.68446571 9.1911124e-39
0.51700681 -0.017579928 0.6858899 9.657131e-39
0.52256 -0.012618043 0.68425268 9.2847472e-39
0.52749896 -0.0081074908 0.68519908 9.4727412e-39
0.53339571 -0.0028334341 0.68492031 6.8019812e-39
0.53851616 0.0017255167 0.68446487 6.3417289e-39
0.54362369 0.0063494416 0.68537062 5.7003294e-39
0.53679568 0.012287131 0.68025792 1.0045721e-38
0.54881394 0.010991425 0.68494946 5.7918048e-39
0.55507797 0.016468659 0.68448007 6.5286397e-39
0.56512505 0.02502048 0.68543065 1.0217509e-38
0.57001209 0.029206332 0.68457842 1.0122792e-38
0.55981386 0.032237634 0.68278104 1.0602497e-38
0.57562089 0.034337252 0.68477863 1.0216789e-38
0.58053732 0.038950361 0.68546349 1.040406e-38
0.58558637 0.043127105 0.68532854 1.0589891e-38
0.45615962 0.19761042 0.68481785 6.8271836e-39
0.46251091 0.19425365 0.6852212 7.8398852e-39
0.44738302 0.20675516 0.68484241 7.1023285e-39
0.45122322 0.20148367 0.68509799 7.3796329e-39
0.43901306 0.21853507 0.68519151 2.7659292e-39
0.44250688 0.21369429 0.68492025 3.3183757e-39
0.43480238 0.22483173 0.68477792 4.9804067e-39
0.4287481 0.2363449 0.68513185 8.2083089e-39
0.43102592 0.23163606 0.68504328 8.2086691e-39
0.42878157 0.24158064 0.68378484 6.4569493e-39
0.43203744 0.2463347 0.68513286 6.0859948e-39
0.4350616 0.25078586 0.68633169 6.2700245e-39
0.44030237 0.25430775 0.68387884 7.0079483e-39
0.52201265 -0.32397968 0.69549119 2.6755622e-39
0.52132088 -0.31441581 0.69532144 2.8599577e-39
0.52321053 -0.30483127 0.69472742 2.8599577e-39
0.52596039 -0.29487315 0.69484532 2.8599577e-39
0.52857995 -0.28495482 0.69491261 9.4043382e-39
0.5296942 -0.27764148 0.69272828 1.1801041e-38
0.5306704 -0.27380994 0.69575852 1.1801041e-38
0.52868921 -0.26008153 0.69880587 2.786447e-39
0.53186387 -0.26476249 0.69506586 1.1801041e-38
0.5331741 -0.25520399 0.69494939 1.1801041e-38
0.53460103 -0.24508806 0.69501936 1.1801041e-38
0.53603739 -0.23469742 0.69501185 1.1801041e-38
0.5373584 -0.22485968 0.69503772 1.1801041e-38
0.53852409 -0.21549854 0.69530618 1.1432261e-38
0.53951252 -0.20590007 0.69342089 1.1708845e-38
0.5403372 -0.2030693 0.69746637 8.3905576e-39
0.53978586 -0.19621456 0.69104838 1.0141896e-38
0.54066789 -0.19474424 0.69580507 5.8094667e-39
0.54137063 -0.18491669 0.69503081 2.8599577e-39
0.54366612 -0.17484975 0.69442171 2.8599577e-39
0.54734391 -0.16487695 0.69378579 2.8599577e-39
0.54952198 -0.15942128 0.69456035 2.8599577e-39
0.55161327 -0.15783547 0.69606256 2.8599577e-39
0.56428647 -0.1580608 0.69049871 3.0443545e-39
0.53588301 -0.082478128 0.69399732 1.576545e-38
0.54133022 -0.082355857 0.6984517 1.9729498e-38
0.51870728 -0.071355097 0.69428408 8.9429761e-39
0.52394748 -0.075895183 0.69521683 1.1985429e-38
0.50911015 -0.060228031 0.69389296 8.9429761e-39
0.51417512 -0.065393135 0.69608593 9.5883455e-39
0.55777842 -0.066484965 0.69990706 1.9268522e-38
0.504682 -0.054832768 0.69527692 1.0694692e-38
0.51047653 -0.059943542 0.69956839 1.0325911e-38
0.49786133 -0.044217631 0.69582951 1.1432618e-38
0.50011045 -0.04135026 0.69888806 1.0880165e-38
0.49882793 -0.038560584 0.69366926 8.9418859e-39
0.50262409 -0.03466627 0.6956597 1.1524089e-38
0.50750494 -0.027529672 0.69522691 1.2353491e-38
0.51226944 -0.022716317 0.69590569 1.2538241e-38
0.53576177 -0.020018745 0.69744468 1.6410819e-38
0.60576618 -0.026002504 0.69853365 4.8894064e-39
0.51749301 -0.017732549 0.69499457 1.1985068e-38
0.52325857 -0.012880182 0.69579232 1.1892512e-38
0.52790606 -0.0083451634 0.695283 1.2169822e-38
0.53375065 -0.0033908603 0.69584149 4.8875245e-39
0.53869599 0.0016888126 0.69436467 2.951433e-39
0.54457432 0.0058661639 0.69640195 2.8599563e-39
0.54882044 0.010730712 0.69343215 2.8595975e-39
0.55521178 0.015221226 0.69580805 4.6113019e-39
0.56098759 0.019248994 0.69837916 1.0602497e-38
0.56555378 0.024085037 0.69536865 1.0786887e-38
0.57114476 0.028351905 0.69699955 1.0233714e-38
0.57601255 0.033407897 0.69448417 1.0509939e-38
0.58238429 0.037967298 0.69589341 9.9571266e-39
0.58702576 0.042057842 0.69394171 1.050994e-38
0.59137583 0.044507623 0.69587463 9.7727354e-39
0.45651197 0.19781138 0.69530725 6.366204e-39
0.46350357 0.19440894 0.69490314 8.2083047e-39
0.47050869 0.19688325 0.69878501 9.1291722e-39
0.44769359 0.2066247 0.69460952 6.0899801e-39
0.45134401 0.20178138 0.69546694 6.0899801e-39
0.43899846 0.21904428 0.69442737 5.0747603e-39
0.44264308 0.21391053 0.6954276 5.536093e-39
0.43489355 0.22509809 0.6952672 5.8130372e-39
0.42919946 0.23660348 0.694601 6.1818128e-39
0.43069932 0.23188886 0.69629562 6.0899787e-39
0.42945033 0.24114974 0.69438279 6.4573136e-39
0.43207073 0.24572195 0.69588965 5.994888e-39
0.437226 0.25161773 0.69671947 5.7172109e-39
0.44170573 0.254623 0.69552869 5.8086862e-39
0.52661973 -0.33022261 0.70771796 1.3837052e-39
0.52301908 -0.32458761 0.70550704 2.2142127e-39
0.52275944 -0.31517273 0.70539856 2.8599577e-39
0.52393478 -0.30506393 0.70493156 2.8599577e-39
0.52648497 -0.29506677 0.70498228 2.8603164e-39
0.5288673 -0.28597406 0.70466638 7.561883e-39
0.53030699 -0.28123513 0.70658249 1.069758e-38
0.53153896 -0.27518064 0.70500761 1.106528e-38
0.53320092 -0.26510793 0.70491087 1.1157116e-38
0.53463149 -0.25510198 0.7047959 1.1341146e-38
0.53601402 -0.24494374 0.70517492 1.1341146e-38
0.5370847 -0.2352185 0.70479345 1.1617011e-38
0.53828526 -0.22510527 0.70501339 1.1617011e-38
0.53935522 -0.21572055 0.70434684 7.4689699e-39
0.54025793 -0.21189803 0.70818806 2.8603164e-39
0.53989762 -0.20937304 0.70113498 7.0079973e-39
0.54094636 -0.20485088 0.70502347 3.1372592e-39
0.54202068 -0.194969 0.70500243 2.8599577e-39
0.54357988 -0.18480732 0.70514566 2.8599577e-39
0.54558444 -0.17490965 0.70503169 2.8599577e-39
0.54768842 -0.16514888 0.7048561 2.8599577e-39
0.55089116 -0.16198997 0.70769614 2.7695599e-39
0.54729092 -0.15560992 0.70025158 3.1365544e-39
0.55489665 -0.15749356 0.70555598 2.8599577e-39
0.56032938 -0.15484929 0.70906502 2.8599577e-39
0.53492254 -0.080988117 0.70180196 1.9176691e-38
0.52620691 -0.074344985 0.7026971 1.5673257e-38
0.53445017 -0.074911803 0.70568329 1.6963634e-38
0.54297817 -0.072911404 0.70603842 1.871499e-38
0.55067712 -0.072064772 0.70140827 1.8622791e-38
0.51752537 -0.063585468 0.70223743 1.1801041e-38
0.52453047 -0.065345176 0.70528221 1.4659104e-38
0.5351485 -0.064902022 0.70662314 1.9084491e-38
0.54414201 -0.064388096 0.70693398 1.9268882e-38
0.55423725 -0.064270534 0.70378059 1.696291e-38
0.56153566 -0.061480202 0.70265794 1.6133155e-38
0.50675809 -0.053094003 0.70321739 1.281519e-38
0.51421183 -0.055386029 0.70560825 1.3552758e-38
0.52503121 -0.054827869 0.70640463 1.5212279e-38
0.53525132 -0.055023011 0.70592719 1.7701199e-38
0.54530203 -0.05530015 0.7063911 1.9084491e-38
0.55477452 -0.054236252 0.70688933 1.9545471e-38
0.56404191 -0.054183591 0.70573401 1.6042798e-38
0.5724436 -0.052350741 0.70285809 4.889405e-39
0.49935067 -0.046388149 0.70121002 1.2539686e-38
0.50455248 -0.044986151 0.70502245 1.382862e-38
0.51483935 -0.04463974 0.70657063 1.6595213e-38
0.5248214 -0.045251355 0.70576012 1.5027888e-38
0.53548139 -0.044784665 0.7058177 1.5212279e-38
0.54527378 -0.04508324 0.70580089 1.724022e-38
0.55480343 -0.044954322 0.70634574 1.9361081e-38
0.56454504 -0.045055714 0.70667535 1.7056581e-38
0.5739674 -0.043905739 0.70594198 5.2578288e-39
0.58191967 -0.041794639 0.70462781 5.0734361e-39
0.50615138 -0.036016904 0.70382917 1.281483e-38
0.51526427 -0.034617592 0.70531416 1.8807903e-38
0.52488738 -0.034846202 0.70506787 1.5949844e-38
0.53486097 -0.035101149 0.70535916 1.5027888e-38
0.54532886 -0.035065446 0.7057308 1.5027888e-38
0.55495304 -0.035025127 0.70614415 1.4843882e-38
0.56441563 -0.035053972 0.70636141 6.4563552e-39
0.57468981 -0.034904595 0.70629901 4.8894064e-39
0.5840112 -0.034647755 0.70591283 4.8894064e-39
0.59196192 -0.031793188 0.70461017 8.6683062e-39
0.50857949 -0.028862208 0.70110279 1.3460198e-38
0.51513767 -0.025781635 0.7027759 1.5120079e-38
0.52461857 -0.02501497 0.7041862 1.862315e-38
0.53510815 -0.024861336 0.70553166 1.5857648e-38
0.54502428 -0.025014034 0.70611793 1.4105947e-38
0.55442137 -0.024948992 0.70635456 6.6407352e-39
0.56454331 -0.025013736 0.70634967 4.8894064e-39
0.5747866 -0.025244214 0.70634079 4.8894064e-39
0.58490372 -0.024912424 0.7064023 4.889405e-39
0.59394687 -0.024025481 0.70618129 8.5761049e-39
0.60201681 -0.022886101 0.70358098 1.7423889e-38
0.51883405 -0.019236041 0.7007103 1.3552395e-38
0.52587187 -0.016252086 0.70227337 1.4935691e-38
0.53491932 -0.014909955 0.70447779 1.6503035e-38
0.54486465 -0.014865898 0.70608222 6.0875642e-39
0.5544861 -0.015284786 0.70650405 4.8890463e-39
0.5644697 -0.014822532 0.70643979 4.8894064e-39
0.57448047 -0.014996536 0.7064063 4.8894064e-39
0.58482343 -0.014661013 0.70647132 4.889405e-39
0.5948354 -0.015237338 0.70644337 1.0235256e-38
0.60480839 -0.014506505 0.70495796 1.9545109e-38
0.61423194 -0.0130196 0.70303363 1.9360719e-38
0.62041146 -0.01010558 0.70236611 2.0098646e-38
0.5362044 -0.0063868281 0.70208722 5.0730297e-39
0.54476631 -0.0047928332 0.70463687 4.2436586e-39
0.55443323 -0.0051843706 0.70656973 4.8890449e-39
0.56442809 -0.004635504 0.70649147 4.8894078e-39
0.57476765 -0.0048752106 0.70620531 4.9812433e-39
0.58514446 -0.0051122382 0.70609206 8.2998726e-39
0.59558594 -0.0053480044 0.70611668 1.8623516e-38
0.60572374 -0.0055924915 0.70547026 2.0005717e-38
0.6149767 -0.0044739489 0.70559031 1.9360714e-38
0.62272501 -0.0039666854 0.705145 1.9268525e-38
0.53048009 0.0073511293 0.70336258 8.7243721e-39
0.54664761 0.0031135264 0.70231879 3.6901051e-39
0.55465823 0.0051613413 0.70475489 4.0588988e-39
0.56451708 0.0047629713 0.70638251 4.9812433e-39
0.57497948 0.0046037203 0.70595062 7.6541543e-39
0.58556831 0.0046266858 0.70574993 1.4935698e-38
0.59493923 0.0051113553 0.70563918 1.539667e-38
0.60423565 0.0049851229 0.70594734 1.7885949e-38
0.61432946 0.0056007723 0.70703751 1.908413e-38
0.62156898 0.0040527456 0.70703286 1.9268518e-38
0.55706775 0.011635301 0.70179337 4.6116873e-39
0.56503975 0.015150397 0.70405984 1.0511061e-38
0.57544905 0.014791507 0.70524842 1.6042047e-38
0.58545119 0.014818253 0.70543158 1.5212279e-38
0.59497952 0.015725246 0.7053479 1.5120083e-38
0.60447139 0.01551651 0.70567775 1.5027888e-38
0.61418557 0.014922392 0.70588088 1.6226071e-38
0.62117243 0.014599591 0.70446384 1.6963996e-38
0.56807774 0.022198299 0.70139134 1.0602497e-38
0.57483602 0.025172854 0.70319927 1.5304473e-38
0.58483744 0.025054097 0.7043255 1.5211199e-38
0.59463173 0.025301127 0.70494348 1.5120083e-38
0.6044364 0.024703028 0.70469517 1.5304475e-38
0.61280566 0.023907015 0.70232266 1.4935692e-38
0.57810444 0.031746533 0.70156407 1.2262019e-38
0.58560681 0.034670383 0.70276648 1.6502656e-38
0.59439421 0.034485266 0.70459509 1.6779605e-38
0.60395753 0.032012094 0.70299083 1.5949843e-38
0.58841825 0.04046404 0.70097935 1.3091418e-38
0.59173036 0.041304544 0.70200962 1.4750935e-38
0.45730466 0.1980702 0.70379591 4.5099922e-39
0.46439552 0.19742654 0.70457983 6.4453802e-39
0.47191906 0.19864887 0.70301342 8.4783826e-39
0.44849879 0.20783712 0.70345312 4.5125272e-39
0.45342004 0.20380057 0.70663357 4.7851358e-39
0.46531704 0.20112614 0.70838451 6.1648164e-39
0.47427785 0.20500021 0.7076394 6.533236e-39
0.43976796 0.21926558 0.7012189 5.0696778e-39
0.44497997 0.21500209 0.70578921 4.3256038e-39
0.4502643 0.21041293 0.70928961 4.6925786e-39
0.47729814 0.21817671 0.70891291 6.7169056e-39
0.4367542 0.22564387 0.70485955 4.2341312e-39
0.44179857 0.22203404 0.70828873 4.7844141e-39
0.4699865 0.22823313 0.70963216 6.4410404e-39
0.47417462 0.22298963 0.70910323 6.5325171e-39
0.429757 0.23739465 0.70113915 3.77243e-39
0.43306059 0.23464198 0.70606428 4.3248807e-39
0.46913683 0.23260486 0.70838857 6.4410404e-39
0.43422008 0.24472506 0.70597595 4.3259639e-39
0.44319975 0.24857572 0.7077812 4.2326865e-39
0.45855427 0.24938466 0.70667744 6.3488461e-39
0.46223608 0.24469946 0.70782083 6.3488461e-39
0.4383063 0.25119042 0.70185202 4.8838404e-39
0.44480255 0.2529245 0.70583063 4.5103566e-39
0.45275387 0.25213903 0.70798463 6.0737054e-39
0.52892542 -0.33119348 0.7120716 3.043993e-39
0.53322732 -0.33358163 0.71608698 2.9517974e-39
0.54271126 -0.33119452 0.71222818 5.1660003e-39
0.52469581 -0.32418123 0.71422195 2.2142113e-39
0.53062916 -0.32954288 0.71960008 2.8599577e-39
0.52421528 -0.31467962 0.71546423 2.7799786e-39
0.52536023 -0.30499485 0.71468383 2.7886022e-39
0.52763826 -0.29497448 0.71508646 2.789321e-39
0.52939862 -0.28770253 0.71407109 2.7896798e-39
0.53075182 -0.28311583 0.71543574 2.8822341e-39
0.53241783 -0.27522436 0.71508795 2.8822355e-39
0.53436232 -0.26513463 0.71502662 2.8822355e-39
0.53587466 -0.25474793 0.71501553 2.974071e-39
0.53708196 -0.24508591 0.71498793 2.974071e-39
0.53828156 -0.23515689 0.71481889 3.433966e-39
0.53938806 -0.22552012 0.71443957 3.5258015e-39
0.54020768 -0.22197597 0.71813267 2.7904e-39
0.53987139 -0.2180893 0.71119511 4.4384041e-39
0.54083085 -0.21459961 0.71558774 2.7896812e-39
0.54188442 -0.20510872 0.7149024 2.786447e-39
0.54304916 -0.19482674 0.71536899 2.7868057e-39
0.54419118 -0.18546401 0.71542084 2.7868057e-39
0.54724884 -0.17524272 0.71445692 2.781775e-39
0.54935718 -0.16758449 0.71386158 2.7763856e-39
0.55142337 -0.16316693 0.71437562 2.7745892e-39
0.55623788 -0.15833171 0.71361262 3.1383522e-39
0.56378198 -0.15680367 0.71362388 3.5979053e-39
0.53623539 -0.0088334456 0.71153486 1.1801041e-38
0.45723054 0.20685148 0.71158081 5.6127272e-39
0.46496972 0.20605488 0.71207738 6.2570106e-39
0.47198576 0.20848796 0.71167701 6.4410404e-39
0.44858566 0.21727929 0.71110576 5.0606381e-39
0.45472306 0.21510877 0.71306789 5.8885925e-39
0.46476904 0.21464379 0.71393025 6.4410404e-39
0.47327736 0.21441852 0.71184063 6.6247114e-39
0.43924251 0.22871052 0.71052808 5.1524736e-39
0.44547346 0.22546989 0.71205819 5.7045627e-39
0.45470536 0.22484536 0.71431899 6.1648164e-39
0.46423036 0.22489673 0.71334773 6.6247114e-39
0.47135094 0.22250903 0.71095031 6.6247114e-39
0.43782255 0.23594721 0.71163177 5.1524736e-39
0.44463757 0.23465534 0.71360964 6.0729809e-39
0.45450225 0.23506317 0.71408719 6.4410404e-39
0.46330091 0.23396198 0.7119 6.6247114e-39
0.43816936 0.24285366 0.71131957 4.9688026e-39
0.44468471 0.24489367 0.71285176 5.796757e-39
0.45363048 0.24381988 0.71307707 6.4406816e-39
0.46048623 0.24177155 0.71128273 6.5328759e-39
0.44761077 0.2504479 0.71087533 5.2446678e-39
0.53572756 -0.33434063 0.72155929 2.8599577e-39
0.52564979 -0.3230077 0.72549224 1.7532206e-39
0.5253129 -0.31542933 0.72520524 2.7763828e-39
0.52673554 -0.30501527 0.72496867 2.7904e-39
0.52875036 -0.2956095 0.72471225 2.7904e-39
0.53020823 -0.29163063 0.72828871 2.7904e-39
0.52987546 -0.28923449 0.72136807 2.7904e-39
0.53146607 -0.28468767 0.72519124 2.7904e-39
0.53351545 -0.27467677 0.72504562 2.7904e-39
0.53537887 -0.26477039 0.72521907 2.7904e-39
0.53677845 -0.25495768 0.72501856 2.7904e-39
0.53803259 -0.2450842 0.72478223 2.7904e-39
0.54485273 -0.24699767 0.72877711 4.8894078e-39
0.53928012 -0.23542926 0.7246483 2.7904e-39
0.54019624 -0.23225893 0.72831106 2.7904e-39
0.53753108 -0.22696431 0.72264999 2.8768489e-39
0.54086745 -0.22443856 0.72557569 2.7904e-39
0.54200929 -0.21498565 0.7247532 2.7904e-39
0.54332274 -0.20501778 0.72515208 2.7904e-39
0.54431301 -0.19512324 0.72486496 2.7904e-39
0.53353876 -0.18789764 0.72382629 2.7720738e-39
0.54528874 -0.18506597 0.72531968 2.7904e-39
0.54665649 -0.17466532 0.7251088 2.7907602e-39
0.54853278 -0.16702844 0.723575 2.8836775e-39
0.55271095 -0.16392298 0.72579819 2.9773164e-39
0.56782854 -0.16501549 0.72349167 3.0443545e-39
0.55737478 -0.15870239 0.72383189 2.965453e-39
0.56228209 -0.15620232 0.72749114 3.1405088e-39
0.53354943 -0.33253759 0.73734748 2.9521561e-39
0.54035121 -0.33760446 0.73834074 2.9521561e-39
0.52782238 -0.32429025 0.73472089 1.752859e-39
0.52741796 -0.31498441 0.73501796 2.775308e-39
0.52811688 -0.30495179 0.73496175 2.7821352e-39
0.52948636 -0.2972531 0.73485303 2.7824939e-39
0.53053188 -0.29254538 0.73576808 2.7796198e-39
0.53214788 -0.28499573 0.73506975 2.781775e-39
0.52408946 -0.2791571 0.73898 3.0443559e-39
0.53414428 -0.27514267 0.73483503 2.781775e-39
0.53560412 -0.26506287 0.73516428 2.7810562e-39
0.53718603 -0.25487921 0.73495662 2.7821352e-39
0.53888655 -0.24454178 0.73477834 2.782854e-39
0.53986984 -0.23860995 0.73462415 2.7842904e-39
0.54069692 -0.23354039 0.7352851 2.781775e-39
0.54177058 -0.22513179 0.73485875 2.7839316e-39
0.54303861 -0.21486329 0.73491281 2.7842904e-39
0.54427731 -0.20474307 0.73526454 2.7839316e-39
0.54532546 -0.19531371 0.73489946 2.7850092e-39
0.54645681 -0.18482895 0.73544437 2.7850092e-39
0.54790413 -0.17552131 0.73457628 2.7878861e-39
0.55106074 -0.17196292 0.73837727 3.1505674e-39
0.54946649 -0.16950057 0.733127 2.7904e-39
0.55373144 -0.16481455 0.73650306 3.0666352e-39
0.55691636 -0.1582558 0.73530322 3.1516478e-39
0.56476778 -0.15702343 0.73337311 3.2319884e-39
0.57121575 -0.15663649 0.73361152 3.32131e-39
0.53504461 -0.33331794 0.748676 2.8599577e-39
0.56714207 -0.33393869 0.74890834 2.9521561e-39
0.52860302 -0.32367969 0.74528676 1.8450589e-39
0.53098655 -0.3290832 0.7457341 2.8599577e-39
0.56759495 -0.32720098 0.74900413 5.4425774e-39
0.57199258 -0.32213098 0.74743718 6.3641399e-39
0.5291791 -0.31508392 0.74493593 2.7677621e-39
0.53010511 -0.31071138 0.74855751 2.8599577e-39
0.57414019 -0.31148845 0.74959487 5.7191517e-39
0.52954412 -0.30598328 0.74230307 2.8599577e-39
0.53075659 -0.30389982 0.74716038 2.7677621e-39
0.57684344 -0.30329365 0.74884349 4.9819439e-39
0.53137213 -0.29491255 0.74493045 2.8599577e-39
0.53311551 -0.28517297 0.74473548 2.8599577e-39
0.53471965 -0.27504936 0.74507576 2.8599577e-39
0.53592825 -0.26501521 0.74528098 2.8599577e-39
0.58277744 -0.26183316 0.74908829 5.7191615e-39
0.53734565 -0.25512317 0.74518603 2.8599577e-39
0.58201575 -0.25837952 0.74993473 5.62697e-39
0.53899175 -0.24542747 0.74485284 2.8599577e-39
0.54020631 -0.2410351 0.74894822 2.8599577e-39
0.53755808 -0.23791938 0.74369287 3.2287514e-39
0.5409081 -0.23490167 0.74540818 2.8599577e-39
0.53191388 -0.22977552 0.74049228 2.789321e-39
0.54266483 -0.22486228 0.74525839 2.8599577e-39
0.58840621 -0.22830322 0.74973613 5.7191559e-39
0.54410785 -0.21513754 0.74521863 2.8599577e-39
0.59106028 -0.2166062 0.74911332 6.0879272e-39
0.5455305 -0.20529605 0.74530536 2.8599577e-39
0.59334129 -0.20313913 0.74891043 6.0879272e-39
0.54678071 -0.19479875 0.74507058 2.8599577e-39
0.5481512 -0.18526082 0.7450189 2.8599577e-39
0.55033988 -0.18276909 0.74952078 3.0443545e-39
0.54919523 -0.17805158 0.74354017 2.8599591e-39
0.55157667 -0.17404132 0.7459923 2.8603192e-39
0.55610728 -0.16528617 0.74450463 2.8613968e-39
0.5609113 -0.16100021 0.74404681 2.8599577e-39
0.55987281 -0.15958688 0.74985552 2.8599577e-39
0.56350178 -0.15701082 0.74513203 2.953954e-39
0.5368861 -0.33303195 0.75539827 2.4908024e-39
0.54353464 -0.33323878 0.75867122 3.6893442e-39
0.55600792 -0.33092061 0.75584245 4.7050095e-39
0.56345081 -0.33236307 0.75031149 4.7046494e-39
0.5298425 -0.32235205 0.751176 1.5684636e-39
0.5346508 -0.32474187 0.7550382 2.6752063e-39
0.54467601 -0.32519436 0.75847197 3.7822825e-39
0.55515724 -0.32457277 0.75628763 5.0738019e-39
0.56216049 -0.32394037 0.75407428 5.1660017e-39
0.52993548 -0.31875008 0.75106245 2.8599563e-39
0.5338515 -0.31468201 0.75549066 3.5979067e-39
0.54461586 -0.31480509 0.7589463 4.889405e-39
0.5550673 -0.31523761 0.75785518 5.0738019e-39
0.56382066 -0.31468907 0.75540018 5.1663604e-39
0.57118219 -0.31490564 0.75064802 5.1660003e-39
0.53410447 -0.30515507 0.75605804 3.3213128e-39
0.54411501 -0.30817577 0.75974047 4.7972094e-39
0.55531955 -0.30579081 0.75920105 5.0738019e-39
0.56453437 -0.30460423 0.75670475 5.1660017e-39
0.57219386 -0.30392924 0.75293171 5.1660003e-39
0.5347544 -0.29510906 0.75557578 3.1365544e-39
0.55670303 -0.2951895 0.75927627 5.1660003e-39
0.564758 -0.29492134 0.75683779 5.1660003e-39
0.5723241 -0.29460439 0.75392044 5.2585547e-39
0.5365268 -0.28508395 0.75518674 3.2287542e-39
0.54094738 -0.28251284 0.7591728 3.5053453e-39
0.55565608 -0.28457195 0.75926524 5.0738033e-39
0.56483495 -0.2850267 0.75670743 5.1660003e-39
0.57315701 -0.28444481 0.75393516 5.1660003e-39
0.58016443 -0.28188595 0.75023925 5.1660003e-39
0.53749526 -0.27463728 0.75430167 3.2287528e-39
0.54251802 -0.27383795 0.75900477 3.6901051e-39
0.55476278 -0.27497175 0.75916588 5.0738019e-39
0.56476837 -0.27505136 0.7567417 5.1660003e-39
0.5738349 -0.27450684 0.75385392 5.1660017e-39
0.53793007 -0.26487455 0.7532537 3.0443545e-39
0.5421114 -0.26432949 0.75843364 3.7823021e-39
0.5549255 -0.2651633 0.75902385 5.0738019e-39
0.56459153 -0.26500851 0.75689656 5.0738047e-39
0.57466215 -0.26489589 0.75357962 5.1660017e-39
0.53877217 -0.25537246 0.75264663 2.8599605e-39
0.54312456 -0.25438848 0.75807512 3.6901037e-39
0.55598754 -0.2554141 0.75900328 5.0738047e-39
0.56476957 -0.25522169 0.75686848 5.0738047e-39
0.57411057 -0.25470242 0.75432271 5.1660003e-39
0.58148748 -0.25376773 0.75109422 5.2581959e-39
0.53964162 -0.24690001 0.75142753 2.8599577e-39
0.54341912 -0.24451859 0.75691664 3.5057096e-39
0.55706966 -0.24513081 0.75937772 5.1660003e-39
0.56435186 -0.24549519 0.75744253 5.1659989e-39
0.57450336 -0.24521676 0.75480789 5.1659989e-39
0.58182013 -0.244739 0.75243479 5.1660017e-39
0.5447337 -0.23482376 0.7562992 3.5053453e-39
0.55616087 -0.23571418 0.75982267 4.9816034e-39
0.56544369 -0.23516768 0.7582798 5.1660003e-39
0.57532561 -0.23495229 0.7555635 5.1660003e-39
0.58225751 -0.2351445 0.75331914 5.1660017e-39
0.5360747 -0.22697815 0.75073349 1.475098e-38
0.54620117 -0.22503531 0.75561118 3.5053411e-39
0.55261785 -0.22346957 0.75975406 4.612451e-39
0.56624436 -0.22592871 0.75914448 5.1660003e-39
0.5745877 -0.22503418 0.75698 5.1660003e-39
0.58361042 -0.22371916 0.75364834 5.1663604e-39
0.54723299 -0.21483698 0.75428063 3.137269e-39
0.55237138 -0.21575254 0.75922114 4.1514574e-39
0.56874919 -0.21567182 0.75962925 1.0973183e-38
0.57495809 -0.21483473 0.75802052 1.1525992e-38
0.58307523 -0.21459724 0.75503498 7.193923e-39
0.54837954 -0.20494746 0.75383151 2.9521589e-39
0.55167794 -0.20367205 0.7583822 3.4131511e-39
0.57520902 -0.20513454 0.75854933 1.3358619e-38
0.58389926 -0.20509544 0.75573909 1.1430888e-38
0.54892313 -0.19537693 0.75247931 2.8599577e-39
0.5517695 -0.19452102 0.75755203 3.2291129e-39
0.57596129 -0.19543014 0.75851786 1.1049398e-38
0.58486187 -0.19472778 0.75578105 8.4802898e-39
0.59002906 -0.19953276 0.75252473 5.1660017e-39
0.54956532 -0.18844318 0.75043309 2.8599577e-39
0.55278444 -0.18476461 0.75564814 3.0443545e-39
0.57634664 -0.18463963 0.75829577 1.1419624e-38
0.58561641 -0.18492971 0.75508088 1.6219573e-38
0.55515951 -0.17465879 0.7552169 3.0443545e-39
0.56926423 -0.17169333 0.75961494 1.1986595e-38
0.57449162 -0.17506854 0.75830013 1.391722e-38
0.58432251 -0.17523688 0.75485289 1.5113597e-38
0.59006286 -0.1748438 0.7524879 1.9453289e-38
0.55695492 -0.16562043 0.75406647 3.1365558e-39
0.56495953 -0.16446598 0.75725442 4.1510973e-39
0.57442325 -0.16463073 0.75712049 4.4273058e-39
0.58216566 -0.16589542 0.7554664 5.8106214e-39
0.56535161 -0.1583208 0.75182366 3.6901065e-39
0.57411349 -0.15848576 0.75419194 3.7823035e-39
0.54844797 -0.33291891 0.76025903 2.6751979e-39
0.55042857 -0.33191723 0.76077783 2.3986124e-39
0.54899597 -0.32867762 0.7601856 8.114705e-39
0.5506894 -0.32986736 0.76047611 3.9666808e-39
0.53697795 -0.30385238 0.76137799 4.06537e-39
0.54522634 -0.30361143 0.76048493 4.7972094e-39
0.55141985 -0.30220261 0.76038361 5.0738019e-39
0.53931421 -0.29553539 0.76025546 4.5202511e-39
0.54437107 -0.29488397 0.76100928 4.7050109e-39
0.55156881 -0.29484904 0.76067394 5.0738047e-39
0.54496789 -0.28518164 0.76080042 4.7046494e-39
0.55132776 -0.28675389 0.76030213 5.0738019e-39
0.5457598 -0.27539408 0.76044238 4.704648e-39
0.54694211 -0.26536021 0.76044792 4.704648e-39
0.55105621 -0.26042789 0.76005191 5.1660003e-39
0.54825491 -0.25609237 0.76037067 4.4280513e-39
0.55292326 -0.25418073 0.76217687 4.7968478e-39
0.57888287 -0.25737914 0.76488513 4.7046494e-39
0.54909933 -0.24660878 0.76006562 4.7046466e-39
0.55204225 -0.24476677 0.76041669 4.797208e-39
0.55436724 -0.23486058 0.76034421 4.797208e-39
0.58279568 -0.23702428 0.76247805 4.797208e-39
0.55651528 -0.22587487 0.76019585 4.797208e-39
0.56163615 -0.22438969 0.76032716 4.8894078e-39
0.55678123 -0.21356484 0.76046652 4.796845e-39
0.56336099 -0.21495469 0.7605803 6.9173319e-39
0.55619007 -0.20506038 0.76119643 4.5198882e-39
0.56521368 -0.20515217 0.760746 1.5120487e-38
0.5564931 -0.19498248 0.76181722 4.2436558e-39
0.56477106 -0.19519396 0.76133072 1.4198542e-38
0.57085186 -0.19376777 0.76009297 1.4100154e-38
0.55728149 -0.18558884 0.76151353 3.8748621e-39
0.56436586 -0.18494834 0.76170349 1.5304875e-38
0.57071763 -0.18617289 0.7602427 1.5670368e-38
0.55884272 -0.17600146 0.76098931 3.5979053e-39
