# .PCD v0.7 - Point Cloud Data file format
VERSION 0.7
FIELDS x y z rgb
SIZE 4 4 4 4
TYPE F F F F
COUNT 1 1 1 1
WIDTH 1005
HEIGHT 1
VIEWPOINT 0 0 0 1 0 0 0
POINTS 1005
DATA ascii
0.80474609 -0.38496476 0.61000168 1.1063476e-38
0.8148737 -0.3850047 0.61000168 1.1063476e-38
0.82513165 -0.38504669 0.61000192 1.1063476e-38
0.83403844 -0.38503382 0.61000198 1.1063476e-38
0.8443253 -0.38499489 0.6100021 1.1063476e-38
0.8552292 -0.38477275 0.6100021 1.1063476e-38
0.86449122 -0.38510564 0.61000216 1.1063476e-38
0.40423271 -0.37860349 0.61896145 1.097128e-38
0.49537575 -0.37038878 0.61763716 1.097128e-38
0.53566623 -0.37521017 0.61000001 1.097128e-38
0.54672354 -0.37526292 0.60999995 1.097128e-38
0.55537015 -0.37483245 0.60999995 1.097128e-38
0.5653156 -0.37514794 0.61000037 1.097128e-38
0.57570487 -0.37512365 0.61000043 1.097128e-38
0.58483613 -0.37603885 0.61000031 1.097128e-38
0.5919764 -0.37748158 0.61000031 1.097128e-38
0.70484972 -0.37532616 0.61000109 1.097128e-38
0.71427095 -0.37499207 0.61000109 1.097128e-38
0.72449875 -0.37500864 0.61000127 1.097128e-38
0.7348761 -0.37502632 0.61000133 1.097128e-38
0.7454046 -0.3750433 0.61000144 1.097128e-38
0.7545743 -0.37501356 0.6100015 1.097128e-38
0.7643984 -0.37477431 0.61010009 1.1063476e-38
0.77510536 -0.37508702 0.61000156 1.1063476e-38
0.78489757 -0.37498626 0.61000156 1.1063476e-38
0.79482639 -0.37488246 0.61000162 1.1063476e-38
0.80474609 -0.37493274 0.61000168 1.1063476e-38
0.81464344 -0.37516475 0.61000168 1.1063476e-38
0.82513154 -0.37487897 0.61000186 1.1063476e-38
0.83403796 -0.3751477 0.61000192 1.1063476e-38
0.84464455 -0.37521514 0.61000204 1.1063476e-38
0.85500997 -0.37474456 0.61000204 1.1063476e-38
0.86426914 -0.37501779 0.6100021 1.1063476e-38
0.35880893 -0.36652023 0.61586487 1.0879084e-38
0.53566623 -0.36614522 0.61000001 1.097128e-38
0.54612917 -0.3650156 0.6099999 1.097128e-38
0.55543923 -0.36495122 0.60999995 1.097128e-38
0.56545585 -0.36518762 0.61000019 1.097128e-38
0.57415539 -0.36730853 0.61000019 1.097128e-38
0.70543814 -0.36502013 0.61000109 1.097128e-38
0.71433079 -0.36486015 0.61000109 1.097128e-38
0.72443712 -0.36526823 0.61000127 1.097128e-38
0.73493767 -0.36474699 0.61000127 1.097128e-38
0.74534124 -0.36516023 0.61000144 1.097128e-38
0.75474197 -0.36499697 0.61000144 1.097128e-38
0.7642709 -0.36482996 0.6100015 1.097128e-38
0.77517122 -0.36501223 0.61000156 1.1063476e-38
0.78489769 -0.36508629 0.61000162 1.1063476e-38
0.79475909 -0.36466151 0.61000162 1.1063476e-38
0.80474627 -0.36490065 0.61000168 1.1063476e-38
0.81487352 -0.36531225 0.61000168 1.1063476e-38
0.8251316 -0.36471125 0.61000186 1.1063476e-38
0.83403796 -0.36492068 0.61000192 1.1063476e-38
0.84456456 -0.36516836 0.61000216 1.1063476e-38
0.85544837 -0.36507922 0.6100021 1.1063476e-38
0.86449116 -0.36494294 0.61000216 1.1063476e-38
0.53566623 -0.35131168 0.61000001 1.097128e-38
0.54710138 -0.35537043 0.60999995 1.097128e-38
0.55448079 -0.35689175 0.60999995 1.097128e-38
0.56240761 -0.35937539 0.61000013 1.097128e-38
0.70627266 -0.3549352 0.61000109 1.097128e-38
0.71420997 -0.35494876 0.61000109 1.097128e-38
0.72449917 -0.35506359 0.61000115 1.097128e-38
0.73487568 -0.35493529 0.61000127 1.097128e-38
0.74559414 -0.35503826 0.61000144 1.097128e-38
0.75491005 -0.35497692 0.61000144 1.097128e-38
0.76420653 -0.35481805 0.6100015 1.097128e-38
0.7751711 -0.35517702 0.61000156 1.097128e-38
0.78489757 -0.3551864 0.61000156 1.097128e-38
0.79475915 -0.35469595 0.61000162 1.1063476e-38
0.80474609 -0.35486859 0.61000168 1.1063476e-38
0.8148737 -0.35521278 0.61000168 1.1063476e-38
0.82492065 -0.35487953 0.61000198 1.1063476e-38
0.83382469 -0.35503155 0.61000198 1.1063476e-38
0.84456462 -0.35487124 0.61000192 1.1063476e-38
0.85522926 -0.35505098 0.6100021 1.1063476e-38
0.86471307 -0.35486385 0.6100021 1.1063476e-38
0.53566623 -0.34801531 0.61000001 1.097128e-38
0.54642361 -0.34873676 0.61000001 1.097128e-38
0.70669055 -0.34473115 0.61000109 1.097128e-38
0.71427101 -0.34481677 0.61000115 1.097128e-38
0.7245599 -0.3448576 0.61000127 1.097128e-38
0.73481321 -0.3451249 0.61000127 1.097128e-38
0.74521536 -0.34493679 0.61000144 1.097128e-38
0.75474203 -0.34495082 0.61000144 1.097128e-38
0.76435137 -0.34500945 0.61006671 1.097128e-38
0.77517122 -0.34534192 0.61000156 1.097128e-38
0.78507262 -0.3449578 0.61000156 1.097128e-38
0.79475927 -0.34473038 0.61000162 1.097128e-38
0.80474621 -0.34483662 0.61000168 1.1063476e-38
0.8148737 -0.34511334 0.61000168 1.1063476e-38
0.82513154 -0.34505498 0.61000186 1.1063476e-38
0.83403814 -0.34514979 0.61000192 1.1063476e-38
0.84448522 -0.34482652 0.6100021 1.1063476e-38
0.85522956 -0.34502846 0.6100021 1.1063476e-38
0.86449146 -0.34512502 0.6100021 1.1063476e-38
0.47119647 -0.33343634 0.61312228 1.097128e-38
0.70794636 -0.33473161 0.61000109 1.097128e-38
0.71433079 -0.33468357 0.61000109 1.097128e-38
0.72443724 -0.33487639 0.61000127 1.097128e-38
0.7348761 -0.33484519 0.61000133 1.097128e-38
0.74546748 -0.33481312 0.61000133 1.097128e-38
0.75474173 -0.33492836 0.6100015 1.097128e-38
0.76414138 -0.33504575 0.6100015 1.097128e-38
0.77517164 -0.33501494 0.6100015 1.097128e-38
0.78489769 -0.33472538 0.61000156 1.097128e-38
0.79493535 -0.33499727 0.61037666 1.097128e-38
0.80474603 -0.33480459 0.61000168 1.097128e-38
0.81487358 -0.33501393 0.61000168 1.097128e-38
0.82513165 -0.33488721 0.61000186 1.097128e-38
0.83403808 -0.33492282 0.61000192 1.097128e-38
0.84456456 -0.33479249 0.61000216 1.097128e-38
0.85522932 -0.33500606 0.61000216 1.097128e-38
0.86449128 -0.33504298 0.61000216 1.097128e-38
0.51894724 -0.32466811 0.61785471 6.3629726e-39
0.70794642 -0.32816023 0.61000109 1.097128e-38
0.71427047 -0.32501388 0.61000127 1.097128e-38
0.72449869 -0.32514533 0.61000127 1.097128e-38
0.73487568 -0.32479995 0.61000133 1.097128e-38
0.74540454 -0.32493088 0.61000139 1.097128e-38
0.75445861 -0.3248392 0.61011016 1.097128e-38
0.76420641 -0.32504389 0.6100015 1.097128e-38
0.77517122 -0.32468805 0.61000156 1.097128e-38
0.78489769 -0.32482544 0.61000162 1.097128e-38
0.79475921 -0.32479933 0.61000162 1.097128e-38
0.80474609 -0.32477257 0.61000168 1.097128e-38
0.8148737 -0.32491446 0.61000168 1.097128e-38
0.8253423 -0.3250573 0.61000198 1.097128e-38
0.83425122 -0.32503551 0.61000198 1.097128e-38
0.84456396 -0.32501021 0.61000198 1.097128e-38
0.85500991 -0.32498476 0.61000204 1.097128e-38
0.86426938 -0.3249622 0.6100021 1.097128e-38
0.37659812 -0.31616664 0.61404693 1.0879084e-38
0.51964498 -0.31507409 0.61822248 6.5473681e-39
0.52043903 -0.31353763 0.61559862 7.7458776e-39
0.71439695 -0.31551978 0.61000127 1.097128e-38
0.72449917 -0.31517255 0.61000115 1.097128e-38
0.73493767 -0.31499681 0.61000127 1.097128e-38
0.74534118 -0.31504998 0.61000133 1.097128e-38
0.7545743 -0.31488559 0.6100015 1.097128e-38
0.76420641 -0.31528172 0.6100015 1.097128e-38
0.7751711 -0.31485289 0.6100015 1.097128e-38
0.78489769 -0.31492555 0.61000162 1.097128e-38
0.79475921 -0.31483373 0.61000162 1.097128e-38
0.80474609 -0.31474051 0.61000168 1.097128e-38
0.81495047 -0.31507102 0.61000168 1.097128e-38
0.82513165 -0.31522834 0.61000192 1.097128e-38
0.83403802 -0.31514922 0.61000192 1.097128e-38
0.84456462 -0.31522796 0.61000204 1.097128e-38
0.85522926 -0.31496245 0.6100021 1.097128e-38
0.86449128 -0.31488025 0.61000216 1.097128e-38
0.51986033 -0.30999988 0.61932147 5.6254272e-39
0.52076274 -0.30591744 0.61724812 6.5473569e-39
0.71569729 -0.30518806 0.61000121 1.097128e-38
0.72455984 -0.30496496 0.61000109 1.097128e-38
0.73481321 -0.30494562 0.61000127 1.097128e-38
0.74540454 -0.30517545 0.61000144 1.097128e-38
0.75474209 -0.30486211 0.61000144 1.097128e-38
0.76420683 -0.30503139 0.6100015 1.097128e-38
0.77517128 -0.30501777 0.6100015 1.097128e-38
0.78489769 -0.30502564 0.61000156 1.097128e-38
0.79462916 -0.30506086 0.61022788 1.097128e-38
0.80474597 -0.30470848 0.61000168 1.097128e-38
0.81487358 -0.30522007 0.61000168 1.097128e-38
0.8251316 -0.30506057 0.61000192 1.097128e-38
0.83403802 -0.30492219 0.61000192 1.097128e-38
0.84464467 -0.30519137 0.61000204 1.097128e-38
0.85544842 -0.30493596 0.6100021 1.097128e-38
0.86471313 -0.30479407 0.6100021 1.097128e-38
0.41555423 -0.29309601 0.61063164 1.0879084e-38
0.5219875 -0.2944802 0.61674857 7.1927193e-39
0.71638519 -0.2953119 0.61000115 1.097128e-38
0.72443724 -0.29498708 0.61000109 1.097128e-38
0.73487568 -0.29514247 0.61000127 1.097128e-38
0.74540502 -0.29505655 0.61000139 1.097128e-38
0.75474209 -0.29516295 0.61000144 1.097128e-38
0.76420629 -0.29478115 0.6100015 1.097128e-38
0.77523661 -0.29493883 0.6100015 1.097128e-38
0.78489769 -0.29512578 0.61000162 1.097128e-38
0.79475921 -0.29490265 0.61000162 1.097128e-38
0.80474651 -0.29501083 0.61000168 1.097128e-38
0.8148737 -0.29512063 0.61000168 1.097128e-38
0.82513154 -0.29489288 0.61000186 1.097128e-38
0.83403832 -0.29503608 0.61000198 1.097128e-38
0.84456456 -0.29514819 0.61000216 1.097128e-38
0.85522932 -0.29491615 0.61000216 1.097128e-38
0.86449146 -0.2950623 0.6100021 1.097128e-38
0.41401446 -0.28398496 0.61164635 1.0879084e-38
0.42203832 -0.28045988 0.61057687 1.0879084e-38
0.52291811 -0.28587198 0.61652851 7.1923521e-39
0.71735513 -0.28594384 0.61000115 1.097128e-38
0.72431505 -0.28501189 0.61000109 1.097128e-38
0.7348761 -0.28509715 0.61000133 1.097128e-38
0.74534428 -0.28495035 0.61020446 1.097128e-38
0.75491005 -0.28513482 0.61000144 1.097128e-38
0.76420653 -0.28501898 0.6100015 1.097128e-38
0.77517116 -0.28485519 0.6100015 1.097128e-38
0.78489763 -0.28522584 0.61000156 1.097128e-38
0.79475915 -0.28493708 0.61000162 1.097128e-38
0.80474627 -0.28531322 0.61000168 1.097128e-38
0.81487358 -0.28502116 0.61000168 1.097128e-38
0.82513189 -0.28506401 0.61000192 1.097128e-38
0.83403796 -0.28515002 0.61000192 1.097128e-38
0.84448522 -0.28510645 0.61000204 1.097128e-38
0.85522968 -0.2848936 0.6100021 1.097128e-38
0.8644914 -0.2849803 0.61000216 1.097128e-38
0.52433741 -0.27427724 0.61647069 6.8235654e-39
0.71808308 -0.27583721 0.61000115 1.097128e-38
0.72453427 -0.27495423 0.61025029 1.097128e-38
0.73493767 -0.27481398 0.61000127 1.097128e-38
0.74546748 -0.27506098 0.61000144 1.097128e-38
0.75474203 -0.2751168 0.61000144 1.097128e-38
0.76427114 -0.27501407 0.6100015 1.097128e-38
0.77517116 -0.27502003 0.61000156 1.097128e-38
0.78489751 -0.27499601 0.61000156 1.097128e-38
0.79475921 -0.27497154 0.61000162 1.097128e-38
0.80474597 -0.27528116 0.61000168 1.097128e-38
0.81487358 -0.27492175 0.61000168 1.097128e-38
0.82513165 -0.27523527 0.61000186 1.097128e-38
0.83403802 -0.27492294 0.61000192 1.097128e-38
0.84456462 -0.27506936 0.61000204 1.097128e-38
0.85500991 -0.27522501 0.61000204 1.097128e-38
0.86405379 -0.27476349 0.61006993 1.097128e-38
0.43099049 -0.2630882 0.61809927 1.0879084e-38
0.48840162 -0.26024064 0.61882621 1.0417745e-38
0.50576055 -0.2656644 0.61328626 9.5887253e-39
0.52545601 -0.26505601 0.61660933 6.8239227e-39
0.7246483 -0.26492906 0.61005807 1.097128e-38
0.73487568 -0.26500618 0.61000127 1.097128e-38
0.74534118 -0.26493964 0.61000133 1.097128e-38
0.75474179 -0.26509434 0.6100015 1.097128e-38
0.76420629 -0.26500607 0.6100015 1.097128e-38
0.77499849 -0.26473224 0.61042362 1.097128e-38
0.7848978 -0.26476607 0.61000156 1.097128e-38
0.79475915 -0.26500601 0.61000162 1.097128e-38
0.80474627 -0.26524916 0.61000168 1.097128e-38
0.8148737 -0.2648223 0.61000168 1.097128e-38
0.8251316 -0.26506755 0.61000186 1.097128e-38
0.83382475 -0.26504639 0.61000198 1.097128e-38
0.8443253 -0.26502681 0.61000192 1.097128e-38
0.85522932 -0.2651957 0.61000216 1.097128e-38
0.86449128 -0.26481754 0.61000216 1.097128e-38
0.32822409 -0.25710353 0.61939496 0
0.45100486 -0.25744736 0.61313725 3.0443461e-39
0.52659708 -0.25582889 0.61671603 5.9019665e-39
0.72483695 -0.25535101 0.61000121 1.097128e-38
0.73481321 -0.2551997 0.61000127 1.097128e-38
0.7454046 -0.25506294 0.61000139 1.097128e-38
0.7545743 -0.25475764 0.61000144 1.097128e-38
0.76414138 -0.25499949 0.6100015 1.097128e-38
0.77517128 -0.25485843 0.6100015 1.097128e-38
0.78489763 -0.25486615 0.61000156 1.097128e-38
0.79475927 -0.25504047 0.61000162 1.097128e-38
0.80474597 -0.25521713 0.61000168 1.097128e-38
0.81479722 -0.25497487 0.61000168 1.097128e-38
0.8251316 -0.25489983 0.61000186 1.097128e-38
0.83403802 -0.25515208 0.61000192 1.097128e-38
0.84456462 -0.25499156 0.61000192 1.097128e-38
0.85522926 -0.25482759 0.61000198 1.097128e-38
0.86471283 -0.25472432 0.6100021 1.097128e-38
0.52817041 -0.24485427 0.61672062 4.9792927e-39
0.72578502 -0.24513032 0.61000121 1.097128e-38
0.73468924 -0.24515533 0.61000127 1.097128e-38
0.74521548 -0.24518512 0.61000139 1.097128e-38
0.75474203 -0.24472722 0.61000144 1.097128e-38
0.76420653 -0.24499407 0.6100015 1.097128e-38
0.77517116 -0.24502322 0.6100015 1.097128e-38
0.78489774 -0.24496624 0.61000156 1.097128e-38
0.79489529 -0.24487391 0.61015373 1.097128e-38
0.80474603 -0.24518511 0.61000168 1.097128e-38
0.81487358 -0.24512884 0.61000168 1.097128e-38
0.82492065 -0.24508323 0.61000192 1.097128e-38
0.83403802 -0.24492504 0.61000192 1.097128e-38
0.84480333 -0.2449518 0.61000192 1.097128e-38
0.85544842 -0.24479267 0.61000204 1.097128e-38
0.86449176 -0.2449996 0.6100021 1.097128e-38
0.41825128 -0.23005746 0.6141203 1.0879084e-38
0.52924061 -0.23547684 0.61808401 6.0863633e-39
0.53100342 -0.23276179 0.61461693 2.3978108e-39
0.72594637 -0.23529589 0.61000121 1.097128e-38
0.73506254 -0.23510981 0.61000127 1.097128e-38
0.7455942 -0.23506597 0.61000133 1.097128e-38
0.75474209 -0.23502807 0.61000144 1.097128e-38
0.7640121 -0.23498933 0.6100015 1.097128e-38
0.77497417 -0.2349437 0.6100015 1.097128e-38
0.7848978 -0.23506634 0.61000156 1.097128e-38
0.79475921 -0.2351093 0.61000162 1.097128e-38
0.80474627 -0.23515305 0.61000168 1.097128e-38
0.81487018 -0.23524544 0.61011988 1.097128e-38
0.8251316 -0.23524351 0.61000186 1.097128e-38
0.83387196 -0.23445122 0.61052775 1.097128e-38
0.84456474 -0.23491073 0.61000192 1.097128e-38
0.8551209 -0.23509498 0.61048204 1.097128e-38
0.86426926 -0.2352792 0.6100021 1.097128e-38
0.53295225 -0.22426091 0.61504704 3.2275757e-39
0.72578472 -0.22516572 0.61000121 1.097128e-38
0.73493767 -0.22506377 0.61000127 1.097128e-38
0.74546742 -0.22494638 0.61000133 1.097128e-38
0.75474197 -0.22532889 0.61000144 1.097128e-38
0.76420647 -0.22498295 0.6100015 1.097128e-38
0.77517116 -0.22486258 0.6100015 1.097128e-38
0.78472298 -0.22484922 0.61000156 1.097128e-38
0.79475921 -0.22514379 0.61000162 1.097128e-38
0.80474621 -0.22512104 0.61000168 1.097128e-38
0.8148737 -0.22492996 0.61000168 1.097128e-38
0.8251316 -0.22507577 0.61000186 1.097128e-38
0.83425111 -0.22479686 0.61000198 1.097128e-38
0.84464455 -0.22486995 0.61000204 1.097128e-38
0.8552292 -0.22510444 0.61000198 1.097128e-38
0.8644914 -0.22518457 0.61000216 1.097128e-38
0.53481466 -0.21504338 0.61529738 2.950993e-39
0.71808308 -0.21154219 0.61000115 1.097128e-38
0.72443724 -0.21475753 0.61000115 1.097128e-38
0.73481321 -0.21502031 0.61000133 1.097128e-38
0.74534118 -0.21482933 0.61000144 1.097128e-38
0.75490999 -0.21529274 0.61000144 1.097128e-38
0.76440084 -0.21497259 0.6100015 1.097128e-38
0.77517116 -0.21502741 0.61000156 1.097128e-38
0.78459167 -0.21490948 0.61039406 1.097128e-38
0.79475915 -0.21517822 0.61000162 1.097128e-38
0.80474627 -0.21508901 0.61000168 1.097128e-38
0.81464344 -0.2150877 0.61000168 1.097128e-38
0.8251316 -0.21490806 0.61000186 1.097128e-38
0.83403814 -0.2149245 0.61000192 1.097128e-38
0.84448522 -0.21508992 0.61000186 1.097128e-38
0.85501003 -0.21509865 0.61000204 1.097128e-38
0.8644914 -0.21475483 0.61000216 1.097128e-38
0.3844136 -0.20123889 0.61135626 0
0.53424168 -0.20602375 0.61708659 2.9513574e-39
0.71681011 -0.20415442 0.61000109 1.097128e-38
0.72449875 -0.20499876 0.61000121 1.097128e-38
0.73468924 -0.20497946 0.61000133 1.097128e-38
0.74521542 -0.20471491 0.61000144 1.097128e-38
0.75474179 -0.20495948 0.61000144 1.097128e-38
0.76420635 -0.20496917 0.6100015 1.097128e-38
0.77517128 -0.20519224 0.61000156 1.097128e-38
0.78465426 -0.20444536 0.61020863 1.097128e-38
0.79469138 -0.20496543 0.61000162 1.097128e-38
0.80474609 -0.20505698 0.61000162 1.097128e-38
0.81509829 -0.20511644 0.61017245 1.097128e-38
0.8251316 -0.20474032 0.61000186 1.097128e-38
0.83403832 -0.20503832 0.61000198 1.097128e-38
0.84456462 -0.2050492 0.61000192 1.097128e-38
0.85522932 -0.20506082 0.6100021 1.097128e-38
0.86471301 -0.20465453 0.6100021 1.097128e-38
0.5332855 -0.19526613 0.61920476 2.3978207e-39
0.68444741 -0.19124189 0.61000085 1.097128e-38
0.69458395 -0.19263196 0.61000103 1.097128e-38
0.70460474 -0.19434138 0.61000091 1.097128e-38
0.71433079 -0.19511704 0.61000097 1.097128e-38
0.72468299 -0.19525684 0.61000127 1.097128e-38
0.73506254 -0.19492348 0.61000127 1.097128e-38
0.7454046 -0.19483289 0.61000144 1.097128e-38
0.75457424 -0.1946297 0.61000144 1.097128e-38
0.76427108 -0.19496071 0.6100015 1.097128e-38
0.77536875 -0.19510433 0.6100015 1.097128e-38
0.78489769 -0.19480796 0.61000156 1.097128e-38
0.79475927 -0.19474931 0.61000162 1.097128e-38
0.80474627 -0.19502495 0.61000168 1.097128e-38
0.81487358 -0.19513807 0.61000168 1.097128e-38
0.8251316 -0.1945726 0.61000186 1.097128e-38
0.83403802 -0.19515228 0.61000192 1.097128e-38
0.8443253 -0.19501747 0.61000192 1.097128e-38
0.85522932 -0.19469276 0.61000198 1.097128e-38
0.86449158 -0.1949369 0.6100021 1.097128e-38
0.53492123 -0.18491997 0.61806411 6.4573515e-40
0.64773017 -0.18110254 0.61000061 1.0879084e-38
0.65546906 -0.18226679 0.61000067 1.0879084e-38
0.66525328 -0.18373871 0.61000067 1.097128e-38
0.67478341 -0.18425572 0.61000073 1.097128e-38
0.68466848 -0.18523183 0.61000085 1.097128e-38
0.69442439 -0.18507159 0.61000091 1.097128e-38
0.70400953 -0.18515524 0.61000091 1.097128e-38
0.71403974 -0.18499179 0.61000097 1.097128e-38
0.72449839 -0.18505201 0.61000115 1.097128e-38
0.73493767 -0.18488094 0.61000127 1.097128e-38
0.7454046 -0.18519585 0.61000144 1.097128e-38
0.75474203 -0.18459238 0.61000144 1.097128e-38
0.76420629 -0.18495625 0.6100015 1.097128e-38
0.77517116 -0.18502878 0.61000156 1.097128e-38
0.78489774 -0.18490806 0.61000156 1.097128e-38
0.79475915 -0.18478374 0.61000162 1.097128e-38
0.80474609 -0.18499294 0.61000162 1.097128e-38
0.81487358 -0.18503861 0.61000168 1.097128e-38
0.82534218 -0.18472327 0.61000192 1.097128e-38
0.83382481 -0.18528676 0.61000198 1.097128e-38
0.84456474 -0.18497139 0.61000186 1.097128e-38
0.85544831 -0.18464935 0.6100021 1.097128e-38
0.86426926 -0.18522361 0.6100021 1.097128e-38
0.36971685 -0.17306057 0.61608267 1.0879084e-38
0.39248866 -0.17011045 0.61343616 1.0879084e-38
0.49705371 -0.17375907 0.61742592 9.6805439e-39
0.53799599 -0.17495885 0.61910927 1.1989131e-39
0.60710591 -0.17121463 0.61000037 1.0879084e-38
0.6155476 -0.17222494 0.61000043 1.0879084e-38
0.6253708 -0.173801 0.61000055 1.0879084e-38
0.63517082 -0.17476155 0.61000055 1.0879084e-38
0.64413536 -0.17498866 0.61000061 1.0879084e-38
0.65469062 -0.17492202 0.61000067 1.0879084e-38
0.66546828 -0.17507921 0.61000067 1.0879084e-38
0.67495489 -0.17485075 0.61000073 1.097128e-38
0.6842261 -0.17509688 0.61000079 1.097128e-38
0.69424748 -0.17508437 0.61000085 1.097128e-38
0.70441556 -0.1750724 0.61000085 1.097128e-38
0.71427053 -0.17508219 0.61000097 1.097128e-38
0.72431499 -0.17485094 0.61000127 1.097128e-38
0.73481321 -0.17484096 0.61000133 1.097128e-38
0.74559414 -0.17530863 0.61000139 1.097128e-38
0.75474203 -0.1748932 0.61000144 1.097128e-38
0.76414138 -0.17495321 0.6100015 1.097128e-38
0.77517116 -0.17519361 0.6100015 1.097128e-38
0.78489774 -0.17500813 0.61000156 1.097128e-38
0.79475927 -0.1748182 0.61000162 1.097128e-38
0.80454075 -0.17531684 0.61000162 1.097128e-38
0.81487358 -0.17493914 0.61000168 1.097128e-38
0.82513154 -0.17491367 0.61000186 1.097128e-38
0.83403808 -0.17538138 0.61000192 1.097128e-38
0.84480333 -0.17492081 0.61000186 1.097128e-38
0.85522956 -0.17499198 0.6100021 1.097128e-38
0.8644914 -0.17512184 0.61000216 1.097128e-38
0.54634613 -0.16296537 0.61276007 8.6663906e-39
0.56744945 -0.16167188 0.61431777 7.1916459e-39
0.57644314 -0.16271852 0.61000013 1.0879084e-38
0.58501911 -0.16420054 0.61000031 1.0879084e-38
0.59506762 -0.16454378 0.61000037 1.0879084e-38
0.60538149 -0.16496816 0.61000049 1.0879084e-38
0.61490875 -0.16524364 0.61000055 1.0879084e-38
0.62482768 -0.16497263 0.61000055 1.0879084e-38
0.63517106 -0.16496798 0.61000061 1.0879084e-38
0.6444937 -0.1648849 0.61000061 1.0879084e-38
0.65469176 -0.16498543 0.61000067 1.0879084e-38
0.66503817 -0.16508774 0.61000067 1.0879084e-38
0.67478299 -0.16500404 0.61000067 1.0879084e-38
0.68466848 -0.16491985 0.61000085 1.0879084e-38
0.69407201 -0.16510078 0.61000091 1.097128e-38
0.70396054 -0.16479647 0.61000085 1.097128e-38
0.71450132 -0.16516773 0.61000097 1.097128e-38
0.72449881 -0.16510776 0.61000109 1.097128e-38
0.73468924 -0.16480352 0.61000133 1.097128e-38
0.74546742 -0.16519424 0.61000139 1.097128e-38
0.75474209 -0.16519402 0.61000144 1.097128e-38
0.76401228 -0.16471097 0.6100015 1.097128e-38
0.77523667 -0.16510901 0.61000156 1.097128e-38
0.7848978 -0.1651082 0.61000156 1.097128e-38
0.79475921 -0.16485266 0.61000162 1.097128e-38
0.80474609 -0.16559894 0.61000162 1.097128e-38
0.81487358 -0.16483971 0.61000168 1.097128e-38
0.82513154 -0.16474594 0.61000186 1.097128e-38
0.83403808 -0.16515437 0.61000192 1.097128e-38
0.84456462 -0.16489056 0.61000186 1.097128e-38
0.85500997 -0.1653389 0.61000204 1.097128e-38
0.86449128 -0.16469213 0.61000216 1.097128e-38
0.35529274 -0.1500546 0.6164155 1.0879084e-38
0.54904985 -0.1551929 0.61174893 8.8511546e-39
0.55506295 -0.15507156 0.61135256 8.9429929e-39
0.5650695 -0.15535176 0.61044747 1.0325916e-38
0.57570487 -0.15495387 0.61000037 1.0879084e-38
0.58520567 -0.154741 0.61000037 1.0879084e-38
0.59457701 -0.15497512 0.61000043 1.0879084e-38
0.6052295 -0.15504843 0.61000055 1.0879084e-38
0.61510843 -0.15514773 0.61000055 1.0879084e-38
0.62522012 -0.15489183 0.61000055 1.0879084e-38
0.63533294 -0.15494081 0.61000055 1.0879084e-38
0.64407665 -0.15504974 0.61000061 1.0879084e-38
0.65469056 -0.15504907 0.61000067 1.0879084e-38
0.66546828 -0.15504842 0.61000067 1.0879084e-38
0.67461216 -0.1551608 0.61000073 1.0879084e-38
0.68422621 -0.1547914 0.61000073 1.0879084e-38
0.69447219 -0.15508346 0.61000085 1.0879084e-38
0.70408922 -0.15516675 0.61037922 1.0879084e-38
0.71403986 -0.1548214 0.61000097 1.0879084e-38
0.72473282 -0.15512002 0.61000115 1.0879084e-38
0.73487568 -0.15498821 0.61000133 1.0879084e-38
0.74516356 -0.15485273 0.61000139 1.0879084e-38
0.75474197 -0.15549485 0.61000144 1.097128e-38
0.76420641 -0.1546953 0.61000144 1.097128e-38
0.77517116 -0.15503104 0.61000156 1.097128e-38
0.78489774 -0.15520832 0.61000156 1.097128e-38
0.79475927 -0.15488711 0.61000156 1.097128e-38
0.80474627 -0.15556692 0.61000168 1.097128e-38
0.81495976 -0.15461151 0.6100812 1.097128e-38
0.82513189 -0.15491708 0.61000192 1.097128e-38
0.83403832 -0.15492734 0.61000192 1.097128e-38
0.84464467 -0.15484616 0.61000186 1.097128e-38
0.85522938 -0.15529409 0.6100021 1.097128e-38
0.86471313 -0.15458475 0.6100021 1.097128e-38
0.37582555 -0.14957893 0.61707997 1.0786889e-38
0.54938895 -0.14464445 0.61000007 1.0879084e-38
0.55537015 -0.14510478 0.60999995 1.0879084e-38
0.56545597 -0.14509565 0.61000019 1.0879084e-38
0.57584727 -0.14490972 0.61000037 1.0879084e-38
0.5851149 -0.14489083 0.61000037 1.0879084e-38
0.59434879 -0.145142 0.61000043 1.0879084e-38
0.60515457 -0.14495528 0.61000049 1.0879084e-38
0.61525142 -0.14483236 0.61000055 1.0879084e-38
0.62506729 -0.14499871 0.61000055 1.0879084e-38
0.6350233 -0.14516833 0.61000055 1.0879084e-38
0.64443457 -0.14494154 0.61000061 1.0879084e-38
0.65469182 -0.14511244 0.61000067 1.0879084e-38
0.66503805 -0.14506321 0.61000067 1.0879084e-38
0.67493957 -0.14505565 0.61000067 1.0879084e-38
0.68444735 -0.14508563 0.61000079 1.0879084e-38
0.69402373 -0.1448866 0.61000085 1.0879084e-38
0.70441562 -0.14510705 0.61000085 1.0879084e-38
0.71427047 -0.14490694 0.61000097 1.0879084e-38
0.72443724 -0.14492747 0.61000097 1.0879084e-38
0.73506254 -0.14516897 0.61000127 1.0879084e-38
0.7454046 -0.14472041 0.61000139 1.0879084e-38
0.75490999 -0.14545064 0.61000144 1.0879084e-38
0.76420641 -0.14493315 0.6100015 1.0879084e-38
0.77510518 -0.14495456 0.6100015 1.0879084e-38
0.78489763 -0.14530841 0.61000156 1.0879084e-38
0.79475927 -0.14492157 0.61000162 1.0879084e-38
0.80474609 -0.14553489 0.61000162 1.0879084e-38
0.81487358 -0.14464083 0.61000168 1.0879084e-38
0.82492054 -0.14545324 0.61000192 1.0879084e-38
0.83403814 -0.14470033 0.61000192 1.0879084e-38
0.84448522 -0.14507332 0.61000186 1.0879084e-38
0.85522938 -0.144926 0.6100021 1.0879084e-38
0.86425251 -0.14525057 0.6100021 1.097128e-38
0.87280655 -0.1431803 0.61650139 1.0879084e-38
0.34879947 -0.13702238 0.61043972 1.0786889e-38
0.45813251 -0.13214235 0.61239493 1.0879084e-38
0.54938895 -0.13464577 0.61000007 1.0879084e-38
0.55537015 -0.13505834 0.60999995 1.0879084e-38
0.56545603 -0.13496865 0.61000019 1.0879084e-38
0.57570487 -0.1348753 0.61000037 1.0879084e-38
0.5850237 -0.1350428 0.61000037 1.0879084e-38
0.59457684 -0.13512093 0.61000043 1.0879084e-38
0.60545284 -0.13484706 0.61000055 1.0879084e-38
0.61510873 -0.13497628 0.61000055 1.0879084e-38
0.62491268 -0.13510931 0.61000055 1.0879084e-38
0.6353184 -0.13490729 0.61000055 1.0879084e-38
0.64412159 -0.13510476 0.61000061 1.0879084e-38
0.65453029 -0.13500233 0.61000067 1.0879084e-38
0.66546828 -0.13501762 0.61000067 1.0879084e-38
0.67461234 -0.13499609 0.61000073 1.0879084e-38
0.68460578 -0.13514933 0.61000079 1.0879084e-38
0.69424784 -0.13511065 0.61000091 1.0879084e-38
0.70396054 -0.13484083 0.61000085 1.0879084e-38
0.71445215 -0.1352272 0.61000091 1.0879084e-38
0.72431499 -0.13496506 0.61000121 1.0879084e-38
0.73493767 -0.13513073 0.61000127 1.0879084e-38
0.7454046 -0.13508338 0.61000144 1.0879084e-38
0.75474179 -0.13512543 0.61000144 1.0879084e-38
0.76420653 -0.13517097 0.6100015 1.0879084e-38
0.77497417 -0.13463843 0.6100015 1.0879084e-38
0.7848978 -0.13540849 0.61000156 1.0879084e-38
0.79455692 -0.13472193 0.61000156 1.0879084e-38
0.80474621 -0.13550285 0.61000168 1.0879084e-38
0.81499237 -0.13470118 0.61005199 1.0879084e-38
0.82513154 -0.13559978 0.61000186 1.0879084e-38
0.83403802 -0.13447329 0.61000192 1.0879084e-38
0.8443253 -0.1353036 0.61000186 1.0879084e-38
0.85522932 -0.13455793 0.61000216 1.0879084e-38
0.86449128 -0.1354889 0.61000216 1.0879084e-38
0.54938895 -0.12464711 0.61000007 1.0879084e-38
0.55523187 -0.12518683 0.60999995 1.0879084e-38
0.56545597 -0.12484162 0.61000019 1.0879084e-38
0.57566029 -0.12488665 0.6100226 1.0879084e-38
0.58493233 -0.1251969 0.61000037 1.0879084e-38
0.5947234 -0.12492623 0.61000043 1.0879084e-38
0.60538149 -0.12492543 0.61000049 1.0879084e-38
0.61486709 -0.12514307 0.61026001 1.0879084e-38
0.62522006 -0.12484601 0.61000055 1.0879084e-38
0.63500953 -0.1251394 0.61000055 1.0879084e-38
0.64428514 -0.12500806 0.61000061 1.0879084e-38
0.6549502 -0.12486635 0.61000067 1.0879084e-38
0.66503811 -0.12503871 0.61000067 1.0879084e-38
0.6750015 -0.12510993 0.61000067 1.0879084e-38
0.68427378 -0.12502156 0.61000073 1.0879084e-38
0.69440877 -0.12510297 0.61000085 1.0879084e-38
0.70418811 -0.12499368 0.61000091 1.0879084e-38
0.71410483 -0.12488167 0.61000085 1.0879084e-38
0.72449875 -0.12521675 0.61000121 1.0879084e-38
0.73463815 -0.12487072 0.61000133 1.0879084e-38
0.7455942 -0.12518957 0.61000144 1.0879084e-38
0.75457424 -0.12480368 0.61000144 1.0879084e-38
0.76420629 -0.12540881 0.6100015 1.0879084e-38
0.7751711 -0.12454388 0.61000156 1.0879084e-38
0.78489769 -0.12550861 0.61000156 1.0879084e-38
0.79475927 -0.12449358 0.61000156 1.0879084e-38
0.80474609 -0.12547083 0.61000162 1.0879084e-38
0.81510335 -0.12467609 0.61000168 1.0879084e-38
0.8251316 -0.12543203 0.61000186 1.0879084e-38
0.83425122 -0.12455821 0.61000192 1.0879084e-38
0.84456462 -0.1252483 0.61000186 1.0879084e-38
0.85544837 -0.12450606 0.61000204 1.0879084e-38
0.86449128 -0.12505916 0.61000216 1.0879084e-38
0.54938895 -0.11464844 0.61000007 1.0879084e-38
0.55537015 -0.1153014 0.60999995 1.0879084e-38
0.56545597 -0.1147146 0.61000007 1.0879084e-38
0.57570511 -0.11496741 0.61000037 1.0879084e-38
0.58506912 -0.11511569 0.61000037 1.0879084e-38
0.59465027 -0.11491405 0.61000043 1.0879084e-38
0.60507202 -0.11519386 0.61000049 1.0879084e-38
0.61510831 -0.11480716 0.61000055 1.0879084e-38
0.62506717 -0.11495639 0.61000055 1.0879084e-38
0.63517094 -0.11510985 0.61000055 1.0879084e-38
0.64444935 -0.1149077 0.61000061 1.0879084e-38
0.65444165 -0.11495554 0.61000067 1.0879084e-38
0.66546828 -0.11498678 0.61000067 1.0879084e-38
0.67456532 -0.11506461 0.61000067 1.0879084e-38
0.68466848 -0.11506317 0.61000079 1.0879084e-38
0.69407195 -0.11490605 0.61000091 1.0879084e-38
0.70441556 -0.1151417 0.61000085 1.0879084e-38
0.71427053 -0.11473167 0.61000097 1.0879084e-38
0.72473294 -0.11522248 0.61000115 1.0879084e-38
0.73487568 -0.11480709 0.61000127 1.0879084e-38
0.74546748 -0.11507956 0.61000144 1.0879084e-38
0.75474209 -0.11475831 0.61000144 1.0879084e-38
0.76440096 -0.11538521 0.61000144 1.0879084e-38
0.77517128 -0.11470872 0.6100015 1.0879084e-38
0.78489774 -0.11560868 0.61000156 1.0879084e-38
0.79475939 -0.11452804 0.61000156 1.0879084e-38
0.80474609 -0.1154388 0.61000162 1.0879084e-38
0.81487358 -0.11484599 0.61000168 1.0879084e-38
0.82513148 -0.1152643 0.61000186 1.0879084e-38
0.83403832 -0.11504058 0.61000198 1.0879084e-38
0.84456462 -0.11495122 0.61000186 1.0879084e-38
0.8549934 -0.11523584 0.61000204 1.0879084e-38
0.8644914 -0.11462943 0.61000216 1.0879084e-38
0.54938895 -0.10464977 0.61000007 1.0879084e-38
0.55537009 -0.10525496 0.60999995 1.0879084e-38
0.56559598 -0.10474662 0.61000001 1.0879084e-38
0.57563382 -0.10510375 0.61000037 1.0879084e-38
0.58506906 -0.10483199 0.61000037 1.0879084e-38
0.59450114 -0.10508145 0.61000043 1.0879084e-38
0.60530394 -0.10508461 0.61000055 1.0879084e-38
0.61526543 -0.10492446 0.61000055 1.0879084e-38
0.62491268 -0.10507046 0.61000055 1.0879084e-38
0.63537675 -0.10484943 0.61000055 1.0879084e-38
0.64413536 -0.10507794 0.61000061 1.0879084e-38
0.6549502 -0.10498957 0.61000067 1.0879084e-38
0.66503817 -0.1050142 0.61000067 1.0879084e-38
0.67500156 -0.10493948 0.61000067 1.0879084e-38
0.68422616 -0.10495059 0.61000073 1.0879084e-38
0.69442433 -0.10511164 0.61000091 1.0879084e-38
0.70396054 -0.10488515 0.61000085 1.0879084e-38
0.71427053 -0.10530189 0.61000097 1.0879084e-38
0.72426462 -0.10481787 0.61000109 1.0879084e-38
0.73487568 -0.10524018 0.61000127 1.0879084e-38
0.7451635 -0.1047486 0.61000139 1.0879084e-38
0.7544964 -0.10476308 0.61060798 1.0879084e-38
0.76427096 -0.10514475 0.6100015 1.0879084e-38
0.77517122 -0.10487356 0.6100015 1.0879084e-38
0.78489774 -0.10570877 0.61000156 1.0879084e-38
0.79475915 -0.10456248 0.61000156 1.0879084e-38
0.80474621 -0.10540675 0.61000162 1.0879084e-38
0.81487358 -0.10474656 0.61000168 1.0879084e-38
0.82513148 -0.10509659 0.61000186 1.0879084e-38
0.83382457 -0.10552715 0.61000198 1.0879084e-38
0.84456474 -0.10465412 0.61000186 1.0879084e-38
0.85522938 -0.1055273 0.6100021 1.0879084e-38
0.86471301 -0.10451496 0.6100021 1.0879084e-38
0.54938895 -0.094651125 0.61000007 1.0879084e-38
0.55522436 -0.09529537 0.61018211 1.0879084e-38
0.56529987 -0.095484205 0.61000007 1.0879084e-38
0.57548708 -0.096948482 0.61000019 1.0879084e-38
0.58472002 -0.097658731 0.61000019 1.0879084e-38
0.59457505 -0.098861381 0.61000031 1.0879084e-38
0.60602611 -0.098767221 0.61000037 1.0879084e-38
0.61556023 -0.096429177 0.61000055 1.0879084e-38
0.62522012 -0.094800219 0.61000055 1.0879084e-38
0.63496518 -0.095099278 0.61000055 1.0879084e-38
0.6444937 -0.094955571 0.61000061 1.0879084e-38
0.65444142 -0.095086224 0.61000067 1.0879084e-38
0.66546828 -0.094955966 0.61000067 1.0879084e-38
0.67456532 -0.094900586 0.61000067 1.0879084e-38
0.68437517 -0.095073655 0.61003858 1.0879084e-38
0.69408685 -0.094919585 0.61000085 1.0879084e-38
0.70435888 -0.0948238 0.61019057 1.0879084e-38
0.71443594 -0.095147245 0.61000097 1.0879084e-38
0.72449875 -0.094823606 0.61000109 1.0879084e-38
0.7351132 -0.095169902 0.61000133 1.0879084e-38
0.7454046 -0.094607905 0.61000139 1.0879084e-38
0.75474203 -0.095359959 0.61000144 1.0879084e-38
0.76414156 -0.094906934 0.6100015 1.0879084e-38
0.77517134 -0.095038399 0.61000156 1.0879084e-38
0.78507274 -0.095450789 0.61000156 1.0879084e-38
0.79475933 -0.094596937 0.61000156 1.0879084e-38
0.80474609 -0.095374733 0.61000162 1.0879084e-38
0.81495053 -0.094891921 0.61000168 1.0879084e-38
0.82513154 -0.094928853 0.61000186 1.0879084e-38
0.83403802 -0.095610648 0.61000192 1.0879084e-38
0.84480333 -0.094591148 0.61000186 1.0879084e-38
0.85522926 -0.095159218 0.61000198 1.0879084e-38
0.86425269 -0.095195502 0.6100021 1.0879084e-38
0.52956623 -0.080024235 0.61618114 1.0418468e-38
0.53084326 -0.081466399 0.61996722 1.1340062e-38
0.549389 -0.087985337 0.61000001 1.0879084e-38
0.553702 -0.088643603 0.61000007 1.0879084e-38
0.61840564 -0.089653797 0.61000049 1.0879084e-38
0.62618107 -0.085984707 0.61000055 1.0879084e-38
0.63517112 -0.084838837 0.61000055 1.0879084e-38
0.6440767 -0.085142069 0.61000061 1.0879084e-38
0.65494061 -0.084932841 0.61000067 1.0879084e-38
0.66503817 -0.084989674 0.61000067 1.0879084e-38
0.67495501 -0.085003726 0.61000073 1.0879084e-38
0.68444735 -0.085082494 0.61000079 1.0879084e-38
0.6942479 -0.084909596 0.61000091 1.0879084e-38
0.70441562 -0.085176341 0.61000085 1.0879084e-38
0.71408951 -0.084811464 0.61000091 1.0879084e-38
0.72449875 -0.085325763 0.61000109 1.0879084e-38
0.73463815 -0.084696248 0.61000133 1.0879084e-38
0.74540448 -0.084970877 0.61000139 1.0879084e-38
0.75490999 -0.08530882 0.61000144 1.0879084e-38
0.7640124 -0.084671728 0.6100015 1.0879084e-38
0.77517128 -0.085203238 0.6100015 1.0879084e-38
0.78489769 -0.08524774 0.61000156 1.0879084e-38
0.79475927 -0.084631383 0.61000156 1.0879084e-38
0.80474609 -0.085342698 0.61000162 1.0879084e-38
0.81487358 -0.085052155 0.61000168 1.0879084e-38
0.8251316 -0.084761113 0.61000186 1.0879084e-38
0.8340382 -0.085383631 0.61000192 1.0879084e-38
0.84464455 -0.084822372 0.61000186 1.0879084e-38
0.85522932 -0.084791154 0.61000198 1.0879084e-38
0.86449116 -0.085426189 0.61000216 1.0879084e-38
0.52538031 -0.076171748 0.61957234 1.0326269e-38
0.62953228 -0.079955578 0.61000049 1.0879084e-38
0.63630253 -0.07690803 0.61000055 1.0879084e-38
0.64443463 -0.075015299 0.61000061 1.0879084e-38
0.65443242 -0.075036988 0.61000067 1.0879084e-38
0.66546822 -0.074925154 0.61000067 1.0879084e-38
0.67472386 -0.074829988 0.61000448 1.0879084e-38
0.68444735 -0.074928105 0.61000073 1.0879084e-38
0.69447225 -0.075120822 0.61000085 1.0879084e-38
0.70396054 -0.07492952 0.61000085 1.0879084e-38
0.71427053 -0.075126633 0.61000097 1.0879084e-38
0.72466654 -0.075095415 0.61000109 1.0879084e-38
0.73487568 -0.074625984 0.61000127 1.0879084e-38
0.74540454 -0.075333856 0.61000133 1.0879084e-38
0.75474173 -0.074990585 0.61000144 1.0879084e-38
0.76420641 -0.074645504 0.6100015 1.0879084e-38
0.77517128 -0.075368084 0.61000156 1.0879084e-38
0.78489751 -0.075017892 0.61000156 1.0879084e-38
0.79475933 -0.07466583 0.61000162 1.0879084e-38
0.80474621 -0.075310677 0.61000162 1.0879084e-38
0.8147974 -0.07521376 0.61000168 1.0879084e-38
0.82513154 -0.074593388 0.61000186 1.0879084e-38
0.83403814 -0.075156614 0.61000192 1.0879084e-38
0.84422833 -0.075342476 0.61000186 1.0879084e-38
0.85522938 -0.07442309 0.61000198 1.0879084e-38
0.8644914 -0.074996457 0.61000216 1.0879084e-38
0.50226617 -0.06190246 0.61916083 1.0786889e-38
0.51104486 -0.06065052 0.61849129 9.0355319e-39
0.64619684 -0.067466237 0.61000061 1.0879084e-38
0.65502346 -0.064996906 0.61000067 1.0879084e-38
0.66503817 -0.064965166 0.61000067 1.0879084e-38
0.67478347 -0.065085731 0.61000073 1.0879084e-38
0.68460578 -0.0649838 0.61000073 1.0879084e-38
0.69402373 -0.064949617 0.61000085 1.0879084e-38
0.70418805 -0.065072678 0.61000091 1.0879084e-38
0.71450138 -0.065195873 0.61000097 1.0879084e-38
0.72431499 -0.064689972 0.61000109 1.0879084e-38
0.73487568 -0.065059051 0.61000127 1.0879084e-38
0.74559414 -0.065432228 0.61000144 1.0879084e-38
0.75457436 -0.064675726 0.61000144 1.0879084e-38
0.76420647 -0.064883322 0.61000144 1.0879084e-38
0.77517134 -0.065532908 0.61000156 1.0879084e-38
0.78472292 -0.064489596 0.61000156 1.0879084e-38
0.79475933 -0.064700268 0.61000156 1.0879084e-38
0.80474627 -0.065278642 0.61000168 1.0879084e-38
0.8148737 -0.065358721 0.61000162 1.0879084e-38
0.82483953 -0.064351648 0.61036479 1.0879084e-38
0.83403802 -0.064929597 0.61000192 1.0879084e-38
0.84456462 -0.065525204 0.61000186 1.0879084e-38
0.85546553 -0.064705461 0.61000204 1.0879084e-38
0.86449116 -0.064566724 0.61000216 1.0879084e-38
0.50633842 -0.053628378 0.61606216 1.0141519e-38
0.51022077 -0.059089839 0.61690128 9.1273674e-39
0.65779871 -0.0573713 0.61000067 1.0879084e-38
0.66542238 -0.055128381 0.61000067 1.0879084e-38
0.67478341 -0.055002119 0.61000067 1.0879084e-38
0.68427378 -0.054872829 0.61000085 1.0879084e-38
0.69424802 -0.055160839 0.61000091 1.0879084e-38
0.70435107 -0.054985646 0.61000085 1.0879084e-38
0.7140398 -0.054882109 0.61000097 1.0879084e-38
0.72449887 -0.054932605 0.61000121 1.0879084e-38
0.73487568 -0.055492114 0.61000133 1.0879084e-38
0.74523145 -0.054876827 0.61000139 1.0879084e-38
0.75474203 -0.05462344 0.61000144 1.0879084e-38
0.76420653 -0.055121154 0.6100015 1.0879084e-38
0.77517116 -0.055697758 0.6100015 1.0879084e-38
0.78489769 -0.054229267 0.61000156 1.0879084e-38
0.79475927 -0.054734726 0.61000162 1.0879084e-38
0.80474609 -0.055246606 0.61000162 1.0879084e-38
0.81464338 -0.05554067 0.61000162 1.0879084e-38
0.82513154 -0.054257933 0.61000186 1.0879084e-38
0.83403814 -0.054702587 0.61000192 1.0879084e-38
0.84456456 -0.055228122 0.61000186 1.0879084e-38
0.85500997 -0.055452786 0.61000204 1.0879084e-38
0.86473042 -0.054789804 0.6100021 1.0879084e-38
0.49907336 -0.042278916 0.61993676 1.1708844e-38
0.50382698 -0.047562838 0.61535442 1.1156031e-38
0.66722488 -0.047892038 0.61000079 1.0879084e-38
0.67497253 -0.045120183 0.61000067 1.0879084e-38
0.68462133 -0.045132115 0.61000073 1.0879084e-38
0.69424802 -0.04493469 0.61000085 1.0879084e-38
0.70400953 -0.044733193 0.61000091 1.0879084e-38
0.71427065 -0.044951357 0.61000091 1.0879084e-38
0.72449881 -0.045434762 0.61000097 1.0879084e-38
0.73487568 -0.04496849 0.61000133 1.0879084e-38
0.74540454 -0.044495404 0.61000144 1.0879084e-38
0.75474209 -0.044924274 0.61000144 1.0879084e-38
0.76420635 -0.045358974 0.61000144 1.0879084e-38
0.77542233 -0.04533666 0.61000156 1.0879084e-38
0.78489769 -0.044329353 0.61000156 1.0879084e-38
0.79475927 -0.044769172 0.61000156 1.0879084e-38
0.80474609 -0.045214575 0.61000162 1.0879084e-38
0.8148737 -0.045666255 0.61000168 1.0879084e-38
0.82534224 -0.044389267 0.61000192 1.0879084e-38
0.83403808 -0.044475567 0.61000192 1.0879084e-38
0.84456474 -0.044931028 0.61000186 1.0879084e-38
0.85522926 -0.045392469 0.6100021 1.0879084e-38
0.86426938 -0.045485027 0.6100021 1.0879084e-38
0.38970909 -0.034580532 0.61726731 1.0786889e-38
0.49838838 -0.037521172 0.61910623 1.134006e-38
0.50756109 -0.030136712 0.615282 6.9143093e-39
0.67742336 -0.03806619 0.61000085 1.0879084e-38
0.68469018 -0.035611227 0.61000079 1.0879084e-38
0.69424808 -0.034708563 0.61000091 1.0879084e-38
0.70418805 -0.03511218 0.61000091 1.0879084e-38
0.71445209 -0.035258807 0.61000097 1.0879084e-38
0.72449869 -0.034987114 0.61000103 1.0879084e-38
0.73487568 -0.034444872 0.61000127 1.0879084e-38
0.7454046 -0.034858383 0.61000139 1.0879084e-38
0.75483489 -0.035515305 0.61037678 1.0879084e-38
0.76420647 -0.035596803 0.61000144 1.0879084e-38
0.77510524 -0.034805663 0.6100015 1.0879084e-38
0.78489774 -0.034429446 0.61000156 1.0879084e-38
0.79475927 -0.034803618 0.61000162 1.0879084e-38
0.80474609 -0.035182543 0.61000162 1.0879084e-38
0.81487381 -0.035566807 0.61000168 1.0879084e-38
0.82490474 -0.035321105 0.61000192 1.0879084e-38
0.83403802 -0.034248549 0.61000192 1.0879084e-38
0.84456474 -0.034633938 0.61000186 1.0879084e-38
0.85522926 -0.035024386 0.61000198 1.0879084e-38
0.8644914 -0.035363477 0.61000216 1.0879084e-38
0.41812816 -0.023722604 0.61486661 1.0786889e-38
0.49627933 -0.029230844 0.61135602 1.1151708e-38
0.50675762 -0.028338328 0.61938977 1.0786526e-38
0.51553798 -0.020725675 0.61732727 9.9571252e-39
0.68728727 -0.028258791 0.61000091 1.0879084e-38
0.69475561 -0.025975097 0.61000097 1.0879084e-38
0.70418811 -0.024813257 0.61000085 1.0879084e-38
0.71410477 -0.024937769 0.61000097 1.0879084e-38
0.72449881 -0.024539474 0.61000109 1.0879084e-38
0.73487568 -0.024877938 0.61000127 1.0879084e-38
0.74540454 -0.025221363 0.61000139 1.0879084e-38
0.75474203 -0.025525922 0.61000144 1.0879084e-38
0.76445383 -0.025309227 0.6100015 1.0879084e-38
0.77497429 -0.024499286 0.6100015 1.0879084e-38
0.78489774 -0.024529539 0.61000156 1.0879084e-38
0.79475933 -0.024838068 0.61000156 1.0879084e-38
0.80474609 -0.025150515 0.61000162 1.0879084e-38
0.81487381 -0.025467372 0.61000168 1.0879084e-38
0.82513148 -0.025788294 0.61000186 1.0879084e-38
0.83426797 -0.024657167 0.61000198 1.0879084e-38
0.84456474 -0.024336854 0.61000186 1.0879084e-38
0.85522932 -0.024656309 0.61000198 1.0879084e-38
0.86449128 -0.024933748 0.61000216 1.0879084e-38
0.51840973 -0.01840473 0.61724448 1.0233714e-38
0.52444655 -0.013203323 0.61670101 1.0141516e-38
0.6979534 -0.019945174 0.61000103 1.0879084e-38
0.70543939 -0.016419353 0.61000103 1.0879084e-38
0.71427047 -0.014776086 0.61000097 1.0879084e-38
0.72449887 -0.015041617 0.61000109 1.0879084e-38
0.73487568 -0.015311008 0.61000127 1.0879084e-38
0.74540454 -0.015584342 0.61000133 1.0879084e-38
0.75489992 -0.01514557 0.61000144 1.0879084e-38
0.76395911 -0.014645421 0.6100015 1.0879084e-38
0.77517134 -0.014390071 0.6100015 1.0879084e-38
0.78476495 -0.014543809 0.61057234 1.0879084e-38
0.79475945 -0.014872514 0.61000162 1.0879084e-38
0.80474621 -0.015118483 0.61000162 1.0879084e-38
0.8148737 -0.015367922 0.61000162 1.0879084e-38
0.82513154 -0.015620565 0.61000186 1.0879084e-38
0.83382475 -0.015541899 0.61000198 1.0879084e-38
0.84492403 -0.01481099 0.61021441 1.0879084e-38
0.85522944 -0.014288235 0.6100021 1.0879084e-38
0.86449128 -0.014504019 0.61000216 1.0879084e-38
0.52866334 -0.009232848 0.61751884 1.0325185e-38
0.53439891 -0.0041944114 0.61729217 1.0509576e-38
0.71553844 -0.0053707864 0.61000103 1.0879084e-38
0.72449875 -0.0055437582 0.61000097 1.0879084e-38
0.7351132 -0.0052258787 0.61000133 1.0879084e-38
0.74540454 -0.0049836244 0.61000144 1.0879084e-38
0.75457418 -0.0045477762 0.61000144 1.0879084e-38
0.76420647 -0.0043578437 0.6100015 1.0879084e-38
0.77517122 -0.0045549111 0.61000156 1.0879084e-38
0.78489763 -0.0047297222 0.61000156 1.0879084e-38
0.79475933 -0.0049069598 0.61000156 1.0879084e-38
0.80474621 -0.0050864522 0.61000162 1.0879084e-38
0.8148737 -0.0052684727 0.61000162 1.0879084e-38
0.82513154 -0.0054528355 0.61000186 1.0879084e-38
0.83403808 -0.0056129103 0.61000192 1.0879084e-38
0.8443253 -0.005580381 0.61000186 1.0879084e-38
0.8552292 -0.0049569667 0.6100021 1.0879084e-38
0.8644914 -0.005117265 0.6100021 1.0879084e-38
0.51966393 0.0076891882 0.61211562 7.8257993e-39
0.54567534 0.0058280164 0.61657143 1.0878361e-38
0.55203819 0.0089188702 0.61000001 1.0786889e-38
0.71461636 0.0053642741 0.61000091 1.0879084e-38
0.72449881 0.0049038841 0.61000127 1.0879084e-38
0.73463815 0.0052180476 0.61000133 1.0879084e-38
0.74540454 0.0056170956 0.61000139 1.0879084e-38
0.75474197 0.0055114315 0.61000144 1.0879084e-38
0.76420635 0.0054043308 0.6100015 1.0879084e-38
0.77517116 0.0052802525 0.61000156 1.0879084e-38
0.78489774 0.0051701861 0.61000156 1.0879084e-38
0.79475921 0.0050585913 0.61000156 1.0879084e-38
0.80474609 0.0049455781 0.61000168 1.0879084e-38
0.8148737 0.0048309728 0.61000168 1.0879084e-38
0.8253966 0.004560411 0.61017179 1.0879084e-38
0.83403802 0.0046141045 0.61000192 1.0879084e-38
0.84456462 0.0044949851 0.61000186 1.0879084e-38
0.85522938 0.0043743025 0.6100021 1.0879084e-38
0.86449116 0.0042694909 0.61000216 1.0879084e-38
0.549389 0.014501018 0.61000001 1.0786889e-38
0.55488628 0.015370226 0.611251 1.0694692e-38
0.56274599 0.018351613 0.61000007 1.0786889e-38
0.5712111 0.019751374 0.61413294 1.0786889e-38
0.70651257 0.01730953 0.61000103 1.0879084e-38
0.71427053 0.015399186 0.61000097 1.0879084e-38
0.72449887 0.015351528 0.61000103 1.0879084e-38
0.73487568 0.015303174 0.61000127 1.0879084e-38
0.7454046 0.015254113 0.61000133 1.0879084e-38
0.75474209 0.015210608 0.61000144 1.0879084e-38
0.76420647 0.015166504 0.6100015 1.0879084e-38
0.77517134 0.015115416 0.6100015 1.0879084e-38
0.78481299 0.014802974 0.61007977 1.0879084e-38
0.79475915 0.015024143 0.61000162 1.0879084e-38
0.80474609 0.014977607 0.61000162 1.0879084e-38
0.8148737 0.014930418 0.61000168 1.0879084e-38
0.82513148 0.01488262 0.61000186 1.0879084e-38
0.83403808 0.014841122 0.61000192 1.0879084e-38
0.84456474 0.014792073 0.61000186 1.0879084e-38
0.85522938 0.014742378 0.6100021 1.0879084e-38
0.86449128 0.014699223 0.61000216 1.0879084e-38
0.49814031 0.028927196 0.61125046 1.0786889e-38
0.55543923 0.025493134 0.60999995 1.0786889e-38
0.56523079 0.025294136 0.61058593 1.0602136e-38
0.57336712 0.027943244 0.61037153 1.05103e-38
0.69640684 0.026421607 0.61000097 1.0879084e-38
0.70418805 0.024808822 0.61000091 1.0879084e-38
0.71427053 0.024828957 0.61000097 1.0879084e-38
0.72449881 0.024849385 0.61000121 1.0879084e-38
0.73487568 0.024870107 0.61000127 1.0879084e-38
0.7454046 0.024891132 0.61000133 1.0879084e-38
0.75474203 0.024909778 0.61000144 1.0879084e-38
0.76420659 0.02492868 0.6100015 1.0879084e-38
0.77513874 0.025008406 0.61031431 1.0879084e-38
0.78489769 0.024970002 0.61000156 1.0879084e-38
0.79475921 0.024989694 0.61000156 1.0879084e-38
0.80474597 0.025009638 0.61000162 1.0879084e-38
0.81487381 0.025029864 0.61000168 1.0879084e-38
0.82513154 0.02505035 0.61000186 1.0879084e-38
0.8340382 0.025068134 0.61000186 1.0879084e-38
0.84418255 0.02521232 0.61056483 1.0879084e-38
0.85522926 0.025110455 0.61000198 1.0879084e-38
0.86449128 0.025128953 0.61000216 1.0879084e-38
0.44094399 0.031213028 0.61818767 1.0786889e-38
0.549389 0.031165466 0.61000001 1.0786889e-38
0.55537015 0.035395283 0.60999995 1.0786889e-38
0.56545603 0.035502706 0.60999995 1.0786889e-38
0.57560974 0.035440296 0.6107415 1.0694693e-38
0.58341026 0.038090125 0.61246389 1.1063474e-38
0.68566382 0.037705302 0.61000091 1.0786889e-38
0.69424796 0.035015114 0.61000085 1.0786889e-38
0.70418805 0.035107743 0.61000085 1.0879084e-38
0.71427077 0.035201702 0.61000091 1.0879084e-38
0.72431499 0.034616284 0.61000127 1.0879084e-38
0.73487568 0.034437038 0.61000127 1.0879084e-38
0.74540448 0.034528155 0.61000133 1.0879084e-38
0.75474197 0.034608956 0.61000144 1.0879084e-38
0.76406002 0.034537192 0.61036009 1.0879084e-38
0.7751711 0.03478574 0.61000156 1.0879084e-38
0.78489769 0.034869909 0.61000156 1.0879084e-38
0.79475915 0.034955241 0.61000156 1.0879084e-38
0.80500305 0.035016518 0.61048061 1.0786889e-38
0.81487381 0.035129309 0.61000168 1.0879084e-38
0.8251316 0.035218079 0.61000186 1.0879084e-38
0.83403802 0.035295151 0.61000192 1.0879084e-38
0.84456462 0.035386242 0.61000186 1.0879084e-38
0.85522926 0.035478532 0.61000198 1.0879084e-38
0.8644914 0.035558682 0.61000216 1.0879084e-38
0.53566134 0.044359453 0.61924881 1.0786889e-38
0.55551332 0.045623515 0.60999995 1.0786889e-38
0.56545597 0.045629717 0.60999995 1.0786889e-38
0.57554632 0.045162834 0.61000019 1.0786889e-38
0.58543158 0.044543043 0.61030978 1.0786889e-38
0.59396106 0.045734458 0.61073947 1.0693253e-38
0.60432029 0.047699448 0.61000025 1.0786889e-38
0.61510849 0.049186066 0.61000037 1.0786889e-38
0.6250667 0.049391557 0.61000043 1.0786889e-38
0.635171 0.049600065 0.61000049 1.0786889e-38
0.64428514 0.04978814 0.61000061 1.0786889e-38
0.65119874 0.049930803 0.61000067 1.0786889e-38
0.66761929 0.048445802 0.61000073 1.0786889e-38
0.67564023 0.045978099 0.61000073 1.0786889e-38
0.68444735 0.045078155 0.61000079 1.0786889e-38
0.69449604 0.045286722 0.61042917 1.0786889e-38
0.70418811 0.045406669 0.61000091 1.0786889e-38
0.71427053 0.04557446 0.61000097 1.0786889e-38
